# .PCD v0.7 - Point Cloud Data file format
VERSION 0.7
FIELDS x y z
SIZE 4 4 4
TYPE F F F
COUNT 1 1 1
WIDTH 1571
HEIGHT 1
VIEWPOINT 0 0 0 1 0 0 0
POINTS 1571
DATA ascii
-3.1874661 5.494957 18.643864
-3.1539714 5.5047574 18.677116
-3.1203573 5.5145936 18.710489
-3.0885677 5.527946 18.755793
-3.0586619 5.5450578 18.813852
-3.0285707 5.5622768 18.872274
-2.9976969 5.5784955 18.927303
-2.9648073 5.5913477 18.970909
-2.9356251 5.6116371 19.039749
-2.9060063 5.63164 19.107616
-2.8728187 5.6451888 19.153587
-2.8394706 5.6588035 19.19978
-2.8059618 5.6724839 19.246197
-2.7722902 5.6862307 19.292837
-2.7368956 5.6967974 19.32869
-2.6998603 5.704216 19.353861
-2.6627288 5.7116547 19.379099
-2.6255 5.7191124 19.404402
-2.5881739 5.7265897 19.429771
-2.5507503 5.7340865 19.455208
-2.5132287 5.7416039 19.480713
-2.4756086 5.7491403 19.506285
-2.4378896 5.7566972 19.531923
-2.4000714 5.7642736 19.557631
-2.3615942 5.770504 19.57877
-2.3226433 5.7757769 19.596659
-2.2836213 5.7810593 19.614582
-2.2445278 5.7863512 19.632538
-2.2053626 5.7916532 19.650526
-2.1661255 5.7969642 19.668547
-2.1272032 5.8033409 19.690182
-2.0885174 5.8106275 19.714905
-2.0505993 5.8203878 19.74802
-2.0138953 5.8340678 19.794436
-1.9770184 5.8478122 19.841068
-1.9399672 5.8616209 19.88792
-1.9027406 5.8754954 19.934996
-1.8653374 5.8894362 19.982294
8.1800184 5.8787341 19.945984
8.1989985 5.8623881 19.890524
8.213069 5.8427153 19.823774
8.2258682 5.8223395 19.754642
8.2385778 5.8021064 19.685993
8.2685461 5.794168 19.65906
8.2986574 5.7864089 19.632732
8.3288612 5.77879 19.606882
8.3617201 5.7730794 19.587507
8.3945141 5.7673802 19.568171
8.4272432 5.7616916 19.54887
8.4599075 5.7560143 19.529608
8.492507 5.7503481 19.510382
8.5250425 5.7446928 19.491194
8.5575142 5.7390485 19.472044
8.589922 5.7334156 19.452932
8.6222658 5.7277937 19.433857
8.6545467 5.7221828 19.41482
8.6867647 5.7165833 19.395821
8.7189198 5.7109942 19.376858
8.7510118 5.7054157 19.357931
8.7829123 5.6997652 19.338758
8.8175898 5.6959605 19.32585
8.8638067 5.6996102 19.338234
8.9101028 5.7032776 19.350676
8.9564581 5.7069492 19.363134
9.0028725 5.7106261 19.375608
9.0493479 5.7143073 19.3881
9.0958834 5.7179937 19.400606
9.142477 5.721684 19.413128
9.1891327 5.7253799 19.425667
9.2358398 5.729075 19.438204
9.2826052 5.7327738 19.450754
9.3294315 5.7364774 19.46332
9.376318 5.7401857 19.475903
9.4232645 5.7438989 19.488501
9.4696836 5.7472596 19.499903
9.5160933 5.7505851 19.511187
9.5625553 5.7539144 19.522482
9.606144 5.7554936 19.52784
9.647603 5.7557888 19.528841
9.689065 5.756083 19.52984
9.7305326 5.7563782 19.530842
9.7720041 5.7566733 19.531843
9.8134823 5.7569695 19.532848
9.8549633 5.7572656 19.533852
9.8964491 5.7575617 19.534857
9.9379396 5.7578578 19.535862
9.9794321 5.758153 19.536863
10.020923 5.7584443 19.537851
10.062417 5.7587352 19.538839
10.103915 5.7590265 19.539827
10.145417 5.7593179 19.540815
10.186925 5.7596097 19.541805
10.228444 5.7599053 19.542809
10.269966 5.7602005 19.54381
10.311493 5.7604961 19.544813
10.353024 5.7607913 19.545815
10.406457 5.7676811 19.569191
10.463947 5.7767563 19.599983
10.521619 5.7858605 19.630873
10.579473 5.7949939 19.661861
10.637509 5.8041553 19.692945
10.69573 5.8133469 19.724131
10.754406 5.8227129 19.755909
10.821739 5.8366771 19.803288
10.898126 5.8553987 19.866808
10.975004 5.8742404 19.930737
11.049945 5.8919063 19.990675
-9.4022455 3.3302073 11.219223
-9.3890991 3.3338957 11.231649
-9.3759222 3.3375926 11.244103
-9.3627176 3.3412976 11.256586
-9.3494825 3.345011 11.269095
-9.3367701 3.3489301 11.282299
-9.3251371 3.3532577 11.296878
-9.3134727 3.3575959 11.311494
-9.3017797 3.3619459 11.326148
-9.2900572 3.3663075 11.340842
-9.2783079 3.3706818 11.355578
-9.2665281 3.3750675 11.370354
-9.2547169 3.3794644 11.385167
-9.2428751 3.383873 11.400019
-9.2310028 3.3882928 11.414909
-9.219099 3.3927245 11.429839
-9.2071648 3.3971677 11.444808
-9.1952 3.4016228 11.459817
-9.1832018 3.4060893 11.474864
-9.1711731 3.4105675 11.489951
-9.1591129 3.4150579 11.505078
-9.1470203 3.4195597 11.520245
-9.1320496 3.4230068 11.531857
-9.1169577 3.4264262 11.543378
-9.1018353 3.4298527 11.554921
-9.0866823 3.433286 11.566487
-9.0714989 3.4367259 11.578076
-9.0562859 3.4401729 11.589689
-9.0410414 3.4436266 11.601325
-9.0257664 3.4470878 11.612985
-9.0104618 3.4505558 11.624668
-8.9951258 3.4540305 11.636374
-8.9797573 3.4575121 11.648104
-8.9643593 3.4610012 11.659858
-8.9489298 3.4644969 11.671635
-8.9336424 3.4680669 11.683662
-8.9182367 3.4716105 11.695601
-8.9004059 3.4742274 11.704416
-8.8827419 3.4769239 11.713501
-8.8653927 3.4797587 11.723051
-8.8480139 3.4825981 11.732616
-8.8306074 3.4854422 11.742198
-8.8131733 3.488291 11.751796
-8.7957106 3.4911444 11.761409
-8.7782183 3.4940026 11.771037
-8.7606974 3.4968653 11.780682
-8.7431479 3.4997325 11.790341
-8.7255697 3.5026047 11.800017
-8.707963 3.5054817 11.80971
-8.6903267 3.508363 11.819417
-8.6726627 3.5112495 11.829142
-8.6549683 3.5141408 11.838881
-8.6372452 3.5170367 11.848638
-8.6194925 3.519937 11.858409
-8.6017113 3.5228426 11.868197
-8.5838995 3.5257528 11.878001
-8.5660591 3.5286679 11.887822
-8.5481892 3.5315878 11.897659
-8.5302896 3.5345123 11.907512
-8.5123568 3.5374405 11.917377
-8.4943943 3.5403736 11.927258
-8.4764023 3.5433114 11.937155
-8.4583797 3.5462542 11.947069
-8.4403276 3.549202 11.957
-8.422246 3.5521543 11.966947
-8.4032154 3.5547235 11.975602
-8.3835287 3.5570295 11.983371
-8.3638172 3.5593386 11.99115
-8.344079 3.5616505 11.998939
-8.3243151 3.5639653 12.006737
-8.3045254 3.5662832 12.014545
-8.2847099 3.5686042 12.022365
-8.2648687 3.5709281 12.030194
-8.2450018 3.5732551 12.038033
-8.2251091 3.5755851 12.045883
-8.2051897 3.5779181 12.053742
-8.1852455 3.5802543 12.061613
-8.1652746 3.5825934 12.069493
-8.1452656 3.5849302 12.077366
-8.1250887 3.5872076 12.085038
-8.1048861 3.589488 12.092721
-8.0846577 3.5917711 12.100412
-8.0649252 3.5942895 12.108897
-8.045249 3.596849 12.117519
-8.0255432 3.5994117 12.126153
-8.0058098 3.6019781 12.134799
-7.9860492 3.6045485 12.143458
-7.9662595 3.6071222 12.152129
-7.9464412 3.6096997 12.160812
-7.9265947 3.6122808 12.169508
-7.9067206 3.6148658 12.178217
-7.8868175 3.6174543 12.186937
-7.8668861 3.6200469 12.195671
-7.8469257 3.6226425 12.204416
-7.8269367 3.6252425 12.213175
-7.8069191 3.627846 12.221946
-7.7868733 3.6304533 12.23073
-7.766798 3.6330643 12.239526
-7.7466917 3.6356778 12.248331
-7.7265563 3.6382952 12.257149
-7.7063918 3.6409163 12.265979
-7.6861978 3.6435409 12.274821
-7.6659746 3.6461694 12.283676
-7.6457224 3.6488018 12.292544
-7.6254406 3.6514378 12.301425
-7.6051302 3.6540778 12.310319
-7.5847902 3.6567218 12.319226
-7.5641685 3.6592474 12.327735
-7.5433769 3.6617079 12.336024
-7.5225573 3.6641715 12.344324
-7.5017095 3.6666386 12.352635
-7.4808331 3.6691086 12.360957
-7.459929 3.6715825 12.369291
-7.4389968 3.6740594 12.377636
-7.418036 3.6765399 12.385992
-7.3970475 3.6790235 12.39436
-7.3760247 3.6815078 12.402729
-7.3502936 3.6816514 12.403213
-7.3245602 3.6817949 12.403696
-7.2988248 3.6819384 12.40418
-7.2730885 3.6820822 12.404664
-7.2473488 3.6822257 12.405148
-7.2216077 3.6823692 12.405631
-7.1958642 3.6825128 12.406115
-7.1701193 3.6826565 12.406599
-7.144372 3.6828001 12.407083
-7.1186233 3.6829441 12.407567
-7.0928717 3.6830873 12.408051
-7.0671186 3.6832314 12.408535
-7.0413632 3.6833749 12.409019
-7.0156059 3.6835186 12.409503
-6.9898467 3.6836622 12.409986
-6.9640808 3.6838033 12.410462
-6.9383116 3.683944 12.410936
-6.9125404 3.6840847 12.41141
-6.8867679 3.6842256 12.411884
-6.8609924 3.6843657 12.412357
-6.8352151 3.6845067 12.412831
-6.8094358 3.6846468 12.413304
-6.7836552 3.6847878 12.413778
-6.7578716 3.6849279 12.414251
-6.7320867 3.6850688 12.414725
-6.7062993 3.685209 12.415198
-6.6805105 3.6853499 12.415672
-6.6547198 3.6854906 12.416146
-6.6289268 3.6856313 12.41662
-6.6031313 3.6857717 12.417093
-6.5864129 3.6909997 12.434707
-6.573895 3.6986327 12.460422
-6.5613246 3.7062972 12.486242
-6.5487018 3.7139933 12.51217
-6.536027 3.7217216 12.538206
-6.5262232 3.7311537 12.569983
-6.5172706 3.7411513 12.603663
-6.5082703 3.7512026 12.637526
-6.4969621 3.7600005 12.667165
-6.4854245 3.7687376 12.696599
-6.4738331 3.7775149 12.72617
-6.4621878 3.7863336 12.755879
-6.4504881 3.7951934 12.785728
-6.4387331 3.804095 12.815716
-6.4269233 3.8130383 12.845845
-6.4150577 3.8220239 12.876117
-6.4031358 3.8310518 12.906531
-6.3911576 3.8401222 12.937089
-6.3841038 3.8522418 12.977919
-6.3775339 3.8647583 13.020086
-6.3709216 3.8773565 13.062529
-6.3642654 3.8900371 13.105248
-6.3575659 3.9028008 13.148249
-6.3508229 3.9156489 13.191533
-6.3440332 3.928581 13.2351
-6.3371968 3.9415972 13.278951
-6.3303156 3.9547005 13.323094
-6.3233776 3.9678845 13.367511
-6.316391 3.9811549 13.412218
-6.3093572 3.9945147 13.457226
-6.3022757 4.0079641 13.502536
-6.2951469 4.0215044 13.548153
-6.2879696 4.0351367 13.594079
-6.2807431 4.0488615 13.640317
-6.2734675 4.0626807 13.686872
-6.2662706 4.0766773 13.734026
-6.2596207 4.0911608 13.78282
-6.252923 4.1057477 13.831962
-6.2461801 4.1204405 13.88146
-6.2393889 4.1352391 13.931315
-6.2325492 4.1501446 13.981531
-6.2256594 4.1651578 14.032109
-6.2181425 4.1798916 14.081747
-6.2053094 4.1911759 14.119762
-6.1971464 4.2057371 14.168819
-6.1889272 4.2204008 14.21822
-6.1806498 4.235167 14.267965
-6.1723146 4.2500362 14.31806
-6.1639204 4.2650108 14.368507
-6.1529284 4.278326 14.413365
-6.1378665 4.288929 14.449086
-6.1227307 4.2995849 14.484985
-6.1099696 4.3120236 14.52689
-6.1055355 4.330493 14.589111
-6.1010633 4.3491206 14.651868
-6.0965528 4.3679099 14.715167
-6.0758395 4.3752227 14.739803
-6.0539489 4.3817587 14.761822
-6.0319929 4.3883133 14.783905
-6.0099707 4.3948884 14.806055
-5.9878831 4.4014831 14.828272
-5.9657283 4.4080973 14.850554
-5.9435077 4.4147315 14.872905
-5.9212198 4.4213858 14.895323
-5.8994341 4.4284878 14.919249
-5.8662457 4.4270601 14.914439
-5.8327708 4.4253998 14.908847
-5.7993116 4.4237337 14.903234
-5.7658782 4.4220691 14.897625
-5.7324686 4.4204049 14.892019
-5.6990852 4.4187427 14.886419
-5.6657262 4.4170814 14.880822
-5.6323929 4.4154215 14.87523
-5.5990844 4.413763 14.869642
-5.5658007 4.4121056 14.864058
-5.5326796 4.4105587 14.858848
-5.4995937 4.4090228 14.853673
-5.466527 4.4074845 14.848492
-5.4334836 4.4059477 14.843314
-5.4004159 4.4043736 14.838011
-5.3673272 4.4027643 14.832588
-5.3342628 4.4011555 14.827169
-5.3012228 4.3995485 14.821755
-5.2682066 4.3979425 14.816344
-5.2352147 4.3963375 14.810938
-5.2022471 4.3947339 14.805535
-5.1693029 4.3931313 14.800137
-5.1363831 4.39153 14.794742
-5.1069512 4.392909 14.799388
-5.088973 4.4042182 14.837487
-5.0709023 4.415586 14.875784
-5.0527382 4.427012 14.914278
-5.0342674 4.4383106 14.952342
-5.015296 4.4493065 14.989387
-4.9962306 4.4603572 15.026615
-4.9770703 4.4714632 15.06403
-4.9578142 4.4826241 15.101631
-4.938664 4.4940252 15.14004
-4.9194932 4.5055552 15.178884
-4.9002233 4.5171442 15.217926
-4.8808546 4.5287933 15.257171
-4.8613858 4.5405021 15.296618
-4.8418159 4.5522718 15.336269
-4.8827047 4.6214228 15.569234
-5.2578788 5.0100327 16.878431
-5.2417865 5.0285616 16.940853
-5.2248702 5.0465469 17.001446
-5.2078314 5.064661 17.062469
-5.1906705 5.0829058 17.123936
-5.152041 5.0802355 17.114939
-5.1118722 5.0759993 17.100668
-5.0717702 5.0717702 17.08642
-5.0317345 5.0675478 17.072195
-4.9917545 5.0633206 17.057955
-4.9518332 5.059093 17.043713
-4.9119792 5.054873 17.029495
-4.872191 5.0506597 17.015301
-4.8324695 5.046453 17.001129
-4.7928138 5.042254 16.986982
-4.7532306 5.0380683 16.972881
-4.7137122 5.0338888 16.958801
-4.6742597 5.029717 16.944746
-4.6348734 5.0255523 16.930716
-4.595551 5.0213938 16.916706
-4.5569887 5.0180073 16.905296
-4.519177 5.0154004 16.896515
-4.4814048 5.0127969 16.887743
-4.4436712 5.0101953 16.878979
-4.4059772 5.0075965 16.870224
-4.3702507 5.0072103 16.868923
-4.3349609 5.0073223 16.869301
-4.2996697 5.0074344 16.869678
-4.2643771 5.0075469 16.870056
-4.2290835 5.0076594 16.870436
-4.1937876 5.0077715 16.870813
-4.1584897 5.0078835 16.871191
-4.1231909 5.0079956 16.871569
-4.0878906 5.0081081 16.871948
-4.0525875 5.0082192 16.872322
-4.0172815 5.0083289 16.872692
-3.9819736 5.0084376 16.873058
-3.9466643 5.0085473 16.873426
-3.9113557 5.0086594 16.873804
-3.8760457 5.0087714 16.874182
-3.8407335 5.008883 16.874557
-3.8054202 5.0089951 16.874935
-3.7701049 5.0091066 16.875311
-3.7347884 5.0092187 16.875689
-3.6994703 5.0093307 16.876066
-3.6641502 5.0094423 16.876442
-3.628829 5.0095544 16.87682
-3.6006751 5.01966 16.910866
-3.5768585 5.0360742 16.966164
-3.5549927 5.0555925 17.031919
-3.5329564 5.0752621 17.098185
-3.5107477 5.0950851 17.164967
-3.4883649 5.1150637 17.232273
-3.4658065 5.1352005 17.300112
-3.4430697 5.1554961 17.368486
-3.4201539 5.1759548 17.43741
-3.3970554 5.1965766 17.506884
-3.3737719 5.2173629 17.576912
-3.3502977 5.2383108 17.647484
-3.3266268 5.2594156 17.718584
-3.3119693 5.2954087 17.839842
-3.2995548 5.3358517 17.976091
-3.2906859 5.3830295 18.135031
-3.2743733 5.418992 18.256186
-3.2578394 5.4554353 18.37896
-3.2385099 5.4880137 18.488714
-3.2065411 5.4997039 18.528097
-3.1732886 5.5094519 18.560938
-3.1399179 5.5192347 18.593895
-3.1064286 5.5290523 18.62697
-3.0728202 5.5389051 18.660164
-3.0406389 5.5516181 18.702993
-3.0106699 5.5687551 18.760727
-2.9805152 5.585999 18.818819
-2.9501734 5.6033492 18.877272
-2.9189651 5.619504 18.931696
-2.8877397 5.6360712 18.987509
-2.8547175 5.6495457 19.032904
-2.821537 5.663085 19.078516
-2.7881968 5.6766887 19.124346
-2.7546966 5.6903586 19.170399
-2.721034 5.7040935 19.216671
-2.6872089 5.717896 19.26317
-2.6532197 5.7317643 19.309893
-2.6167281 5.7405739 19.339571
-2.5795155 5.748054 19.364771
-2.5422058 5.7555537 19.390038
-2.5047989 5.7630734 19.415371
-2.4672942 5.7706137 19.440773
-2.4296911 5.778173 19.46624
-2.3919895 5.7857523 19.491774
-2.3541889 5.7933517 19.517376
-2.315702 5.7995014 19.538094
-2.2767901 5.8047895 19.555908
-2.2378075 5.8100877 19.573757
-2.1987534 5.8153949 19.591637
-2.1596282 5.8207121 19.60955
-2.1208954 5.8273149 19.631794
-2.0823164 5.8346095 19.65637
-2.0436411 5.8419232 19.681009
-2.004868 5.8492546 19.705708
-1.9659981 5.8566051 19.730471
-1.9288672 5.8695636 19.774128
-1.8918281 5.8833776 19.820665
-1.8546141 5.8972564 19.867422
-1.8172243 5.9112005 19.9144
-1.779657 5.925211 19.961599
8.103941 5.9261379 19.964722
8.1231508 5.9096441 19.909157
8.1422529 5.8932424 19.853899
8.1583843 5.874867 19.791994
8.1713524 5.8544121 19.723083
8.1915007 5.8392816 19.67211
8.221736 5.8314567 19.645748
8.2518892 5.8236527 19.619457
8.2819624 5.8158693 19.593235
8.3131952 5.8089733 19.570004
8.3460083 5.8032436 19.550701
8.3787565 5.7975254 19.531437
8.4114399 5.7918186 19.512211
8.4440575 5.7861218 19.493019
8.4766121 5.7804365 19.473866
8.5091028 5.7747626 19.45475
8.5415287 5.7690992 19.435671
8.5738926 5.7634478 19.416632
8.6061916 5.7578068 19.397627
8.6384277 5.7521768 19.37866
8.6706018 5.7465582 19.359732
8.702713 5.7409506 19.340839
8.7347612 5.7353535 19.321983
8.7671728 5.7300463 19.304104
8.8000631 5.7250986 19.287436
8.8428106 5.7265801 19.292427
8.8891058 5.7303348 19.305077
8.9354591 5.7340932 19.317738
8.9817524 5.7377787 19.330154
9.0281048 5.7414689 19.342587
9.0745163 5.7451639 19.355034
9.1209888 5.7488637 19.367498
9.1675205 5.7525682 19.379978
9.2141075 5.7562747 19.392466
9.2607489 5.7599826 19.404957
9.3074503 5.7636948 19.417463
9.3542128 5.7674122 19.429987
9.4010344 5.7711339 19.442526
9.4479179 5.7748613 19.455082
9.4943914 5.7783074 19.466692
9.5407352 5.7816448 19.477936
9.5867405 5.7847495 19.488396
9.6281137 5.7850451 19.489391
9.6694927 5.7853413 19.490389
9.7108746 5.7856369 19.491385
9.7522621 5.7859335 19.492384
9.7936544 5.7862301 19.493383
9.8350515 5.7865272 19.494385
9.8764524 5.7868242 19.495384
9.9178581 5.7871213 19.496386
9.9592676 5.7874184 19.497387
10.000676 5.7877126 19.498377
10.042086 5.7880044 19.499361
10.083499 5.7882967 19.500345
10.124917 5.788589 19.501329
10.166339 5.7888808 19.502314
10.207765 5.7891731 19.503298
10.2492 5.7894678 19.504292
10.290641 5.7897639 19.505289
10.332088 5.790061 19.506289
10.376925 5.7922482 19.513659
10.434207 5.8013368 19.544277
10.491668 5.8104539 19.574991
10.54931 5.8195996 19.605803
10.607133 5.828774 19.636711
10.665318 5.8380756 19.668047
10.723895 5.8475189 19.699862
10.782649 5.856986 19.731754
10.840541 5.8659143 19.761833
10.9099 5.8809552 19.812506
10.986605 5.899828 19.876085
11.062177 5.9179511 19.937141
11.135232 5.9345961 19.993217
11.597898 5.9352717 19.995493
11.626198 5.9283133 19.972052
11.654431 5.9213719 19.948666
11.682598 5.9144459 19.925333
11.7107 5.9075365 19.902056
11.738735 5.9006429 19.878832
11.766706 5.8937659 19.855663
11.794611 5.8869047 19.832548
11.822453 5.8800597 19.809488
11.859184 5.8776693 19.801435
11.897712 5.8761821 19.796425
-9.3844318 3.347388 11.197967
-9.3712902 3.3510888 11.210346
-9.35812 3.3547976 11.222754
-9.3449192 3.3585145 11.235188
-9.3316908 3.3622398 11.24765
-9.3184319 3.3659732 11.260139
-9.3051434 3.3697152 11.272657
-9.2926579 3.3737674 11.286213
-9.2809687 3.3781302 11.300808
-9.269249 3.3825045 11.315441
-9.2574997 3.3868899 11.330112
-9.245719 3.3912868 11.34482
-9.2339077 3.395695 11.359567
-9.2220659 3.4001148 11.374352
-9.2101927 3.4045458 11.389175
-9.1982889 3.4089887 11.404038
-9.1863537 3.4134431 11.41894
-9.1743879 3.4179091 11.43388
-9.1623907 3.4223871 11.448859
-9.150362 3.4268768 11.463879
-9.1383009 3.4313779 11.478936
-9.1262083 3.4358909 11.494034
-9.1119995 3.4396288 11.506538
-9.09692 3.4430573 11.518007
-9.081811 3.4464929 11.5295
-9.0666714 3.4499352 11.541016
-9.0515022 3.4533844 11.552554
-9.0363016 3.4568403 11.564116
-9.0210714 3.4603033 11.5757
-9.0058107 3.4637733 11.587308
-8.9905186 3.4672501 11.598939
-8.9751968 3.4707341 11.610594
-8.9598427 3.4742248 11.622272
-8.944459 3.4777229 11.633973
-8.9290438 3.4812279 11.645699
-8.9135323 3.484714 11.657361
-8.8968773 3.4877717 11.66759
-8.8801947 3.490835 11.677837
-8.8632565 3.4938147 11.687805
-8.8459282 3.4966569 11.697313
-8.8285732 3.4995041 11.706838
-8.8111887 3.5023553 11.716376
-8.7937775 3.5052118 11.725932
-8.7763367 3.5080726 11.735502
-8.7588673 3.5109384 11.745089
-8.7413692 3.5138085 11.75469
-8.7238426 3.5166836 11.764308
-8.7062874 3.5195632 11.773941
-8.6887045 3.5224476 11.78359
-8.671092 3.5253367 11.793256
-8.65345 3.5282307 11.802937
-8.6357794 3.5311294 11.812634
-8.6180792 3.5340326 11.822346
-8.6003504 3.5369408 11.832074
-8.582593 3.5398538 11.841819
-8.564805 3.5427716 11.85158
-8.5469894 3.5456941 11.861357
-8.5291424 3.5486214 11.871149
-8.5112638 3.5515523 11.880954
-8.4933558 3.5544879 11.890775
-8.4754181 3.5574286 11.900612
-8.4574499 3.560374 11.910465
-8.4394522 3.5633245 11.920335
-8.4214258 3.5662799 11.930222
-8.403368 3.5692399 11.940124
-8.3848963 3.572041 11.949494
-8.3652401 3.574353 11.957229
-8.3455591 3.576668 11.964973
-8.3258514 3.5789862 11.972728
-8.3061199 3.5813072 11.980493
-8.2863617 3.5836313 11.988267
-8.2665777 3.5859582 11.996052
-8.246768 3.5882885 12.003847
-8.2269335 3.5906217 12.011652
-8.2070723 3.592958 12.019467
-8.1871853 3.5952973 12.027293
-8.1672726 3.5976396 12.035129
-8.1473341 3.5999849 12.042974
-8.1272278 3.6022706 12.050621
-8.1070852 3.6045542 12.05826
-8.086916 3.6068404 12.065908
-8.066721 3.6091297 12.073566
-8.0465012 3.6114216 12.081234
-8.0262547 3.6137166 12.088911
-8.0059834 3.6160145 12.096599
-7.9856858 3.6183155 12.104296
-7.9659243 3.6208746 12.112857
-7.9461703 3.6234539 12.121485
-7.9263883 3.6260364 12.130124
-7.9065776 3.6286225 12.138776
-7.8867393 3.6312127 12.147441
-7.8668723 3.6338065 12.156117
-7.8469768 3.6364038 12.164806
-7.8270526 3.6390049 12.173508
-7.8071008 3.6416099 12.182222
-7.7871194 3.6442184 12.190948
-7.7671099 3.6468308 12.199688
-7.7470694 3.649446 12.208436
-7.7270002 3.6520648 12.217196
-7.7069011 3.6546869 12.225968
-7.6867738 3.6573131 12.234754
-7.6666174 3.6599429 12.243551
-7.6464314 3.6625764 12.252361
-7.6262174 3.6652141 12.261185
-7.6059728 3.667855 12.27002
-7.5857005 3.6705003 12.278869
-7.5653977 3.6731489 12.287729
-7.5450044 3.6757715 12.296502
-7.5242529 3.6782367 12.304749
-7.5034728 3.6807053 12.313007
-7.4826651 3.6831772 12.321277
-7.4618292 3.6856523 12.329556
-7.4409657 3.6881309 12.337848
-7.420074 3.6906126 12.34615
-7.3991537 3.6930976 12.354464
-7.3782053 3.6955862 12.362788
-7.3533244 3.6961155 12.364559
-7.327672 3.6962593 12.36504
-7.3020172 3.696403 12.36552
-7.27636 3.6965466 12.366001
-7.2507014 3.6966903 12.366482
-7.2250404 3.6968338 12.366962
-7.1993775 3.6969776 12.367443
-7.1737127 3.6971214 12.367924
-7.1480455 3.6972649 12.368404
-7.1223774 3.6974089 12.368886
-7.0967064 3.6975527 12.369367
-7.0710335 3.6976962 12.369847
-7.0453587 3.6978402 12.370329
-7.0196819 3.697984 12.37081
-6.9940033 3.698128 12.371291
-6.9683185 3.6982696 12.371765
-6.9426303 3.6984105 12.372236
-6.9169397 3.6985512 12.372707
-6.8912473 3.6986921 12.373178
-6.8655524 3.6988328 12.373649
-6.8398561 3.6989734 12.37412
-6.814158 3.6991143 12.374591
-6.7884574 3.6992548 12.375061
-6.7627549 3.6993957 12.375532
-6.7370501 3.6995363 12.376002
-6.7113438 3.699677 12.376473
-6.6856351 3.6998177 12.376944
-6.659925 3.6999583 12.377415
-6.634213 3.7000992 12.377886
-6.6084986 3.7002399 12.378356
-6.5883794 3.7035267 12.389352
-6.5759106 3.7111576 12.414879
-6.5633903 3.7188196 12.440511
-6.5508189 3.7265136 12.466249
-6.5381947 3.7342393 12.492094
-6.5255179 3.7419972 12.518046
-6.5127883 3.7497873 12.544106
-6.5036812 3.7597346 12.577383
-6.4946632 3.7698147 12.611104
-6.4855967 3.7799492 12.645006
-6.475903 3.7897995 12.677958
-6.4643064 3.7986131 12.707442
-6.4526563 3.8074679 12.737064
-6.4409513 3.816364 12.766825
-6.4291916 3.8253019 12.796724
-6.4173765 3.8342817 12.826764
-6.4055066 3.8433039 12.856946
-6.3935795 3.8523684 12.887269
-6.381597 3.8614759 12.917737
-6.3709416 3.8714678 12.951162
-6.3643432 3.884021 12.993156
-6.3577013 3.8966558 13.035423
-6.3510165 3.9093728 13.077966
-6.3442874 3.9221733 13.120787
-6.3375144 3.9350581 13.16389
-6.3306966 3.9480274 13.207276
-6.323833 3.9610822 13.250948
-6.3169212 3.9742222 13.294905
-6.3099627 3.9874487 13.339151
-6.3029456 4.0007563 13.383669
-6.2958822 4.014153 13.428485
-6.2887707 4.0276394 13.473601
-6.2816114 4.0412173 13.519023
-6.2744036 4.0548868 13.564751
-6.2671471 4.0686488 13.610789
-6.259841 4.0825047 13.657142
-6.2524848 4.0964556 13.703811
-6.2454529 4.1107483 13.751624
-6.2387228 4.1253734 13.80055
-6.231945 4.1401033 13.849825
-6.2251182 4.1549382 13.899452
-6.2182426 4.1698804 13.949437
-6.2113175 4.1849303 13.999784
-6.2043424 4.200089 14.050494
-6.1927962 4.2122836 14.091289
-6.1810055 4.2244282 14.131915
-6.1727509 4.2391181 14.181058
-6.1644392 4.253911 14.230543
-6.1560688 4.2688069 14.280375
-6.1476398 4.2838078 14.330557
-6.1391516 4.2989144 14.381093
-6.124104 4.3095546 14.416688
-6.1089673 4.3202376 14.452425
-6.0937557 4.3309736 14.48834
-6.0816312 4.3440223 14.531992
-6.0770741 4.3626351 14.594256
-6.0724778 4.3814082 14.657058
-6.060832 4.3952599 14.703396
-6.0389733 4.4018092 14.725306
-6.0170493 4.4083781 14.74728
-5.99506 4.4149666 14.76932
-5.9730043 4.4215746 14.791427
-5.9508829 4.4282026 14.813599
-5.9286952 4.4348507 14.835838
-5.9064403 4.4415183 14.858144
-5.8785467 4.443994 14.866426
-5.8451657 4.4423261 14.860846
-5.8118091 4.4406586 14.855268
-5.7784781 4.438993 14.849695
-5.745172 4.4373279 14.844126
-5.7118907 4.4356647 14.838561
-5.6786346 4.4340024 14.833
-5.6454034 4.4323411 14.827444
-5.6121969 4.4306817 14.821892
-5.5791259 4.429111 14.816638
-5.5461183 4.4275732 14.811494
-5.513134 4.4260368 14.806355
-5.4801693 4.4244995 14.80121
-5.447226 4.4229612 14.796065
-5.4143057 4.4214244 14.790924
-5.3814082 4.419889 14.785787
-5.3485193 4.4183421 14.780612
-5.3155775 4.4167333 14.775231
-5.2826595 4.4151263 14.769855
-5.2497659 4.4135199 14.764482
-5.2168961 4.4119148 14.759112
-5.1840501 4.4103112 14.753747
-5.151228 4.4087086 14.748386
-5.1184297 4.4071074 14.743029
-5.096458 4.414865 14.76898
-5.0784898 4.4262066 14.806922
-5.0604296 4.4376073 14.84506
-5.0422754 4.4490666 14.883395
-5.0240278 4.4605856 14.921929
-5.0053663 4.471879 14.959708
-4.9863138 4.4829636 14.99679
-4.9671669 4.4941034 15.034056
-4.9479246 4.5052986 15.071507
-4.928586 4.5165501 15.109146
-4.9091506 4.5278573 15.146973
-4.8897104 4.5393076 15.185277
-4.8703561 4.5509887 15.224353
-4.8509021 4.5627294 15.26363
-4.8313475 4.5745316 15.303111
-4.81879 4.5931611 15.365432
-4.8609591 4.664557 15.604271
-5.2209992 5.0440164 16.873671
-5.2052698 5.0631461 16.937666
-5.1882253 5.0812516 16.998234
-5.1520095 5.0807014 16.996393
-5.1121187 5.0764942 16.982319
-5.0722809 5.0722809 16.968224
-5.0325027 5.068068 16.95413
-4.9927907 5.0638623 16.940062
-4.9531446 5.0596638 16.926016
-4.9135637 5.0554719 16.911993
-4.8734498 5.0506659 16.895916
-4.828526 5.0407691 16.862808
-4.7943354 5.0420132 16.86697
-4.7602062 5.0433412 16.871412
-4.7225933 5.0409703 16.863482
-4.6847887 5.0383577 16.854742
-4.6470242 5.035749 16.846014
-4.6092987 5.0331421 16.837294
-4.5716114 5.0305376 16.828581
-4.5339637 5.0279365 16.81988
-4.4963546 5.0253377 16.811186
-4.4587846 5.0227418 16.802502
-4.4212537 5.0201488 16.793827
-4.384553 5.0184646 16.788193
-4.3494325 5.0185761 16.788567
-4.3143106 5.0186877 16.78894
-4.2791877 5.0188003 16.789316
-4.2440624 5.0189118 16.78969
-4.2089357 5.0190239 16.790064
-4.1738081 5.019136 16.79044
-4.1386781 5.019248 16.790813
-4.1035442 5.0193567 16.791178
-4.0684094 5.0194664 16.791544
-4.0332727 5.0195751 16.791908
-3.9981344 5.0196838 16.792273
-3.9629943 5.019793 16.792637
-3.9278529 5.0199018 16.793001
-3.8927095 5.02001 16.793364
-3.8575656 5.0201197 16.79373
-3.8224218 5.0202312 16.794104
-3.787276 5.0203424 16.794476
-3.7521291 5.0204544 16.794849
-3.7169805 5.020566 16.795223
-3.6818304 5.0206776 16.795597
-3.6466782 5.0207891 16.795969
-3.6125524 5.0223289 16.801121
-3.5877702 5.0370173 16.850258
-3.5628431 5.0517926 16.899685
-3.5380912 5.0671158 16.950945
-3.5160952 5.0867367 17.016582
-3.4939282 5.1065102 17.082731
-3.4715874 5.1264372 17.149393
-3.4490719 5.1465206 17.216578
-3.426379 5.1667619 17.28429
-3.4035077 5.1871638 17.352541
-3.3804557 5.2077293 17.421337
-3.3572204 5.2284579 17.490681
-3.3337994 5.2493525 17.560579
-3.3101904 5.2704148 17.631039
-3.2863913 5.291647 17.702066
-3.2685566 5.3230777 17.807211
-3.2558322 5.3636541 17.942951
-3.2429101 5.40485 18.080763
-3.2215228 5.4327459 18.174082
-3.20471 5.4691157 18.29575
-3.1876707 5.5059767 18.41906
-3.1571288 5.520133 18.466417
-3.1254711 5.5326662 18.508345
-3.0926242 5.5433831 18.544195
-3.0591407 5.5532174 18.577093
-3.025538 5.563086 18.610107
-2.9929795 5.5751581 18.650492
-2.9629481 5.5923195 18.707901
-2.9327314 5.6095867 18.765665
-2.9023273 5.6269612 18.823788
-2.8695962 5.6402407 18.868212
-2.8366358 5.6534348 18.91235
-2.8036215 5.6668944 18.957376
-2.7704804 5.6804814 19.002829
-2.73718 5.6941333 19.048498
-2.7037191 5.7078514 19.094389
-2.6700966 5.7216358 19.140501
-2.6363113 5.7354865 19.186836
-2.6023622 5.7494049 19.233397
-2.5682466 5.7633882 19.280174
-2.5337183 5.7768779 19.325302
-2.4964256 5.7844005 19.350468
-2.4590356 5.7919436 19.3757
-2.4215479 5.7995052 19.400997
-2.3839619 5.8070869 19.426359
-2.346278 5.8146887 19.45179
-2.3084948 5.82231 19.477285
-2.27 5.8283782 19.497585
-2.2311275 5.8336821 19.515327
-2.1921842 5.8389955 19.533102
-2.1531696 5.8443179 19.550907
-2.114625 5.8511467 19.573751
-2.0761523 5.8584495 19.598183
-2.0375836 5.8657713 19.622675
-1.9989184 5.8731108 19.647228
-1.9601562 5.8804688 19.671843
-1.921297 5.8878455 19.69652
-1.88234 5.8952403 19.721258
-1.8440132 5.9049864 19.75386
-1.8068126 5.918869 19.800303
-1.7694367 5.9328175 19.846964
-1.7318848 5.9468336 19.893852
-1.6941552 5.9609165 19.940964
-1.6562464 5.9750662 19.988298
8.0277205 5.97363 19.983494
8.0471601 5.9569888 19.927824
8.0664921 5.9404397 19.872463
8.0857172 5.9239826 19.81741
8.1038733 5.9069157 19.760315
8.1170111 5.8863826 19.691626
8.1447115 5.8765635 19.658779
8.1749878 5.8686943 19.632454
8.2051849 5.860846 19.606199
8.2352991 5.8530183 19.580013
8.2653341 5.8452115 19.553898
8.2975874 5.8390431 19.533262
8.3303547 5.8332949 19.514032
8.3630571 5.827558 19.494841
8.3956938 5.8218317 19.475685
8.4282675 5.8161168 19.456568
8.4607773 5.8104129 19.437487
8.4932222 5.8047199 19.418442
8.5256042 5.7990384 19.399435
8.5579224 5.7933674 19.380465
8.5901766 5.7877078 19.36153
8.6223698 5.7820597 19.342636
8.6544991 5.776422 19.323776
8.6867743 5.7709341 19.305418
8.7197351 5.7659502 19.288746
8.7526398 5.7609758 19.272104
8.7854881 5.7560096 19.255491
8.82166 5.7532568 19.246283
8.8678293 5.7570195 19.258869
8.9140606 5.7607875 19.271475
8.960351 5.7645597 19.284094
9.0067024 5.7683377 19.296732
9.0531149 5.77212 19.309385
9.0995874 5.7759075 19.322056
9.1460085 5.7796283 19.334503
9.1924772 5.7833467 19.346941
9.2389956 5.7870631 19.359375
9.285574 5.7907848 19.371824
9.3322115 5.7945104 19.384287
9.3789101 5.7982411 19.396769
9.4256668 5.8019767 19.409264
9.4724855 5.8057165 19.421776
9.5190153 5.8092494 19.433594
9.5652943 5.8125992 19.444799
9.6087046 5.8141842 19.450102
9.6499987 5.8144813 19.451096
9.6912966 5.8147779 19.452087
9.7325993 5.8150754 19.453083
9.7739086 5.8153734 19.454081
9.8152208 5.815671 19.455076
9.8565369 5.815969 19.456072
9.8978577 5.816267 19.457069
9.9391823 5.8165646 19.458065
9.9805107 5.8168621 19.459061
10.021836 5.8171554 19.460041
10.063165 5.8174481 19.461021
10.104498 5.8177414 19.462002
10.145836 5.8180346 19.462982
10.187177 5.8183274 19.463963
10.228522 5.8186207 19.464943
10.269873 5.8189144 19.465925
10.311235 5.819212 19.466921
10.3526 5.819509 19.467915
10.404634 5.825778 19.488886
10.461886 5.8349071 19.519426
10.519319 5.8440657 19.550064
10.577016 5.8533001 19.580956
10.635192 5.8627267 19.61249
10.693555 5.8721833 19.644125
10.752107 5.8816705 19.675863
10.810823 5.8911753 19.707659
10.868659 5.9001288 19.737612
10.92665 5.9090991 19.76762
10.998142 5.9252753 19.821733
11.074344 5.9438567 19.883894
11.144381 5.9590025 19.934561
11.198049 5.9653153 19.955679
11.25183 5.971642 19.976843
11.305726 5.9779816 19.998051
11.387415 5.97682 19.994165
11.415956 5.9698124 19.970722
11.44443 5.9628205 19.947332
11.472838 5.9558449 19.923998
11.50118 5.9488864 19.900719
11.529456 5.9419441 19.877495
11.557668 5.935019 19.854328
11.585815 5.9281101 19.831217
11.613896 5.9212174 19.808159
11.648208 5.9175386 19.795853
11.686778 5.9160423 19.790846
11.725328 5.914546 19.785841
11.763859 5.9130507 19.780838
11.802369 5.9115558 19.775837
11.84086 5.9100618 19.77084
11.879333 5.9085684 19.765844
11.917785 5.9070759 19.760851
-9.3669701 3.3646064 11.177131
-9.3538551 3.3683267 11.189489
-9.3407106 3.3720553 11.201876
-9.3275366 3.375792 11.214289
-9.3143339 3.3795369 11.226729
-9.3011007 3.3832903 11.239198
-9.2878399 3.3870521 11.251695
-9.2745228 3.3908129 11.264188
-9.2608852 3.3944752 11.276354
-9.2485342 3.398629 11.290153
-9.236784 3.4030256 11.304758
-9.2250023 3.4074335 11.319401
-9.213191 3.4118528 11.334082
-9.2013493 3.4162836 11.348801
-9.189476 3.4207258 11.363558
-9.1775723 3.4251795 11.378353
-9.165637 3.4296451 11.393188
-9.1536713 3.4341223 11.408061
-9.141674 3.4386113 11.422973
-9.1296453 3.4431119 11.437923
-9.1175842 3.4476242 11.452913
-9.1054926 3.4521484 11.467943
-9.0920362 3.4561779 11.481329
-9.0769701 3.4596155 11.492748
-9.0618744 3.4630599 11.50419
-9.0467491 3.4665112 11.515656
-9.0315924 3.4699693 11.527143
-9.0164061 3.4734344 11.538654
-9.0011892 3.4769061 11.550187
-8.9859419 3.4803853 11.561745
-8.970664 3.483871 11.573324
-8.9553556 3.4873638 11.584928
-8.9400167 3.4908636 11.596554
-8.9246473 3.4943707 11.608204
-8.9089508 3.4977686 11.619492
-8.8923464 3.5008276 11.629654
-8.8757133 3.5038922 11.639834
-8.8590508 3.5069623 11.650033
-8.8423595 3.5100379 11.66025
-8.8256388 3.5131185 11.670484
-8.8088884 3.5162046 11.680736
-8.7918549 3.5191946 11.690668
-8.7744656 3.5220582 11.700181
-8.7570477 3.5249267 11.70971
-8.7396011 3.5277998 11.719254
-8.722127 3.5306776 11.728814
-8.7046232 3.5335598 11.738389
-8.6870909 3.5364468 11.74798
-8.6695299 3.5393386 11.757586
-8.6519403 3.5422354 11.767209
-8.6343222 3.5451365 11.776847
-8.6166754 3.5480428 11.786501
-8.598999 3.5509536 11.796171
-8.5812941 3.5538692 11.805857
-8.5635595 3.5567896 11.815558
-8.5457964 3.5597148 11.825275
-8.5280037 3.5626447 11.835009
-8.5101776 3.5655782 11.844753
-8.4923239 3.5685167 11.854515
-8.4744396 3.5714598 11.864292
-8.4565258 3.5744078 11.874085
-8.4385824 3.5773609 11.883895
-8.4206095 3.5803187 11.893721
-8.402607 3.5832813 11.903563
-8.3845749 3.5862489 11.913421
-8.3665123 3.5892212 11.923295
-8.3470306 3.5916009 11.9312
-8.3273811 3.5939221 11.938911
-8.307704 3.596246 11.946631
-8.2880039 3.5985734 11.954363
-8.2682772 3.6009037 11.962104
-8.2485247 3.6032369 11.969854
-8.2287474 3.6055732 11.977615
-8.2089434 3.6079125 11.985387
-8.1891146 3.6102548 11.993168
-8.1692591 3.6125998 12.000958
-8.1493788 3.6149485 12.00876
-8.1293554 3.6172481 12.016399
-8.1092701 3.6195345 12.023994
-8.08916 3.6218235 12.031599
-8.069025 3.6241159 12.039214
-8.0488634 3.6264107 12.046838
-8.028677 3.6287088 12.054472
-8.0084639 3.6310098 12.062116
-7.9882264 3.6333137 12.069769
-7.9679623 3.6356204 12.077432
-7.9476728 3.6379299 12.085104
-7.9273577 3.6402426 12.092787
-7.9070163 3.6425579 12.100478
-7.8866611 3.644882 12.108198
-7.8668585 3.6474771 12.116819
-7.8470268 3.6500757 12.125452
-7.827168 3.6526785 12.134098
-7.8072801 3.6552846 12.142756
-7.787364 3.6578944 12.151425
-7.7674193 3.6605079 12.160108
-7.7474451 3.6631248 12.1688
-7.7274408 3.6657445 12.177504
-7.7074075 3.6683679 12.186218
-7.6873455 3.6709952 12.194946
-7.6672549 3.6736264 12.203687
-7.6471362 3.6762614 12.21244
-7.6269879 3.6789 12.221206
-7.6068106 3.6815424 12.229983
-7.5866046 3.6841886 12.238774
-7.5663695 3.6868386 12.247578
-7.5461049 3.6894925 12.256393
-7.5258117 3.6921504 12.265223
-7.5052252 3.6946821 12.273633
-7.4844851 3.6971552 12.281849
-7.4637175 3.6996319 12.290076
-7.4429216 3.7021117 12.298314
-7.4220982 3.7045949 12.306563
-7.4012465 3.7070816 12.314824
-7.3803668 3.7095716 12.323095
-7.3563366 3.7104895 12.326145
-7.3307638 3.7106335 12.326623
-7.3051882 3.710777 12.3271
-7.2796111 3.7109208 12.327578
-7.2540321 3.7110646 12.328055
-7.2284513 3.7112083 12.328533
-7.2028685 3.7113523 12.329011
-7.1772833 3.7114961 12.329489
-7.1516967 3.7116399 12.329967
-7.1261082 3.7117841 12.330445
-7.1005173 3.7119279 12.330923
-7.074924 3.7120717 12.331401
-7.0493293 3.7122154 12.331879
-7.0237327 3.7123597 12.332357
-6.9981337 3.7125034 12.332835
-6.9725304 3.7126462 12.333309
-6.9469223 3.7127872 12.333777
-6.9213114 3.7129278 12.334245
-6.895699 3.7130687 12.334713
-6.8700848 3.7132096 12.335181
-6.8444686 3.7133505 12.335649
-6.8188505 3.7134917 12.336118
-6.7932296 3.7136323 12.336585
-6.7676077 3.7137733 12.337053
-6.7419829 3.7139139 12.337521
-6.7163572 3.7140548 12.337989
-6.6907287 3.7141955 12.338456
-6.6650987 3.7143364 12.338924
-6.6394663 3.7144771 12.339392
-6.613832 3.7146182 12.33986
-6.5903311 3.7159629 12.344327
-6.5779119 3.7235911 12.369668
-6.5654416 3.731251 12.395114
-6.5529194 3.7389421 12.420664
-6.5403466 3.7466655 12.446321
-6.5277205 3.7544205 12.472082
-6.5150428 3.7622077 12.497952
-6.5023122 3.7700276 12.523929
-6.4901481 3.7782404 12.551211
-6.481113 3.7883492 12.584792
-6.4720292 3.798512 12.618553
-6.4628963 3.8087294 12.652495
-6.4537144 3.8190022 12.686621
-6.4431524 3.8285398 12.718305
-6.4314427 3.837472 12.747977
-6.4196782 3.846446 12.777789
-6.4078588 3.8554623 12.80774
-6.3959832 3.8645205 12.837831
-6.3840528 3.8736217 12.868066
-6.3720646 3.8827655 12.898441
-6.3600206 3.891953 12.928962
-6.3512063 3.903204 12.966337
-6.3445358 3.915875 13.00843
-6.337822 3.9286282 13.050796
-6.3310637 3.9414649 13.093439
-6.3242617 3.954386 13.136362
-6.3174148 3.9673917 13.179567
-6.3105226 3.9804835 13.223058
-6.3035846 3.9936616 13.266835
-6.2965975 4.0069256 13.310898
-6.2895579 4.0202742 13.355241
-6.282464 4.0337076 13.399866
-6.2753234 4.0472312 13.444791
-6.2681341 4.0608454 13.490017
-6.2608962 4.0745516 13.535549
-6.2536097 4.0883508 13.581389
-6.2462735 4.1022439 13.627542
-6.2388849 4.1162295 13.674003
-6.2314477 4.1303129 13.720787
-6.2245874 4.1449108 13.769281
-6.2177749 4.1596766 13.818333
-6.2109132 4.1745481 13.867735
-6.2040024 4.1895261 13.917492
-6.1970415 4.2046123 13.967607
-6.1900306 4.2198071 14.018084
-6.1804237 4.2333689 14.063136
-6.1674147 4.2447195 14.100842
-6.1566591 4.2577376 14.144089
-6.148313 4.2725568 14.193316
-6.1399088 4.2874789 14.242887
-6.1314449 4.3025055 14.292806
-6.1229224 4.3176379 14.343076
-6.1104026 4.3300877 14.384434
-6.0952663 4.3407979 14.420012
-6.0800552 4.3515606 14.455766
-6.0647678 4.3623772 14.491697
-6.0532722 4.3760433 14.537096
-6.0485921 4.3947997 14.599405
-6.0438714 4.4137177 14.662251
-6.0240717 4.421761 14.68897
-6.0021801 4.4283438 14.710836
-5.9802222 4.4349451 14.732767
-5.9581995 4.4415669 14.754765
-5.936111 4.4482083 14.776827
-5.9139562 4.4548697 14.798956
-5.890759 4.4608126 14.818697
-5.8574805 4.4591432 14.813151
-5.8242269 4.4574752 14.807611
-5.790998 4.4558082 14.802073
-5.7577939 4.4541426 14.796539
-5.7246141 4.4524779 14.79101
-5.6914601 4.4508147 14.785485
-5.6583304 4.4491529 14.779964
-5.625309 4.4475584 14.774668
-5.5923791 4.4460187 14.769553
-5.5594721 4.4444804 14.764442
-5.5265875 4.4429426 14.759335
-5.4937248 4.4414058 14.754229
-5.4608817 4.439867 14.749117
-5.428061 4.4383292 14.744008
-5.3952632 4.4367924 14.738903
-5.3624883 4.435257 14.733802
-5.3297353 4.433722 14.728703
-5.2970057 4.4321885 14.723609
-5.264226 4.4305949 14.718315
-5.2314539 4.4289889 14.71298
-5.1987052 4.4273839 14.707648
-5.1659803 4.4257803 14.702321
-5.1332788 4.4241776 14.696997
-5.1038737 4.4254131 14.701101
-5.0860071 4.4367299 14.738695
-5.0680494 4.4481049 14.776483
-5.0499997 4.459538 14.814464
-5.0318565 4.4710302 14.852641
-5.0136194 4.4825821 14.891015
-4.9952884 4.4941936 14.929588
-4.9764366 4.5054803 14.967083
-4.957303 4.516654 15.004201
-4.9380746 4.5278831 15.041504
-4.9187498 4.5391679 15.078992
-4.8993287 4.5505095 15.116668
-4.8798103 4.5619078 15.154532
-4.8601942 4.5733633 15.192588
-4.8404794 4.5848765 15.230834
-4.8209238 4.5966949 15.270095
-4.8012834 4.6085896 15.309609
-4.7971873 4.6356659 15.399556
-5.1943703 5.0535059 16.787609
-5.1841402 5.07798 16.868912
-5.1478028 5.0770426 16.865797
-5.1024227 5.067112 16.832808
-5.0572205 5.0572205 16.799948
-5.0121932 5.0473666 16.767214
-4.9673414 5.0375514 16.734608
-4.9307065 5.0359883 16.729416
-4.8968801 5.0372925 16.733747
-4.8630366 5.0385976 16.738083
-4.8291755 5.0399032 16.74242
-4.7952967 5.0412092 16.746759
-4.7614088 5.0425253 16.751131
-4.7275076 5.0438461 16.75552
-4.6935878 5.0451674 16.759909
-4.6596508 5.0464897 16.764301
-4.6236262 5.0455537 16.761192
-4.586102 5.0429554 16.75256
-4.5486169 5.0403595 16.743937
-4.5111704 5.037766 16.735321
-4.473762 5.0351753 16.726715
-4.4363918 5.0325871 16.718117
-4.3990612 5.0300021 16.70953
-4.3637662 5.0297227 16.708601
-4.3288116 5.0298338 16.708971
-4.2938561 5.0299459 16.709343
-4.2588987 5.0300574 16.709713
-4.2239399 5.030169 16.710085
-4.1889777 5.0302787 16.710449
-4.1540132 5.0303874 16.71081
-4.1190476 5.0304966 16.711172
-4.0840807 5.0306058 16.711535
-4.0491114 5.030714 16.711895
-4.0141411 5.0308232 16.712257
-3.9791689 5.0309319 16.712618
-3.9441953 5.0310402 16.712978
-3.9092197 5.031148 16.713337
-3.874243 5.0312567 16.713697
-3.8392646 5.0313654 16.714058
-3.804285 5.0314736 16.714418
-3.7693043 5.0315828 16.714781
-3.7343235 5.0316944 16.715151
-3.6993413 5.0318055 16.715521
-3.6643577 5.0319171 16.715891
-3.6293724 5.0320282 16.716261
-3.5996892 5.0395646 16.741297
-3.5749583 5.0542512 16.790085
-3.5500824 5.0690231 16.839157
-3.5250611 5.0838819 16.888517
-3.4998925 5.0988278 16.938168
-3.4772677 5.1178246 17.001274
-3.4549696 5.137701 17.067303
-3.4324982 5.157733 17.133848
-3.4098501 5.1779203 17.200911
-3.3870237 5.1982665 17.268499
-3.3640175 5.2187734 17.336622
-3.3408306 5.2394447 17.405293
-3.3174591 5.2602806 17.474508
-3.2939012 5.2812829 17.544277
-3.2701545 5.302454 17.614607
-3.2462163 5.3237948 17.685501
-3.2252944 5.3506327 17.774656
-3.2122619 5.3913403 17.909885
-3.1990297 5.432672 18.047188
-3.1725171 5.4521699 18.111959
-3.1520596 5.4826732 18.213291
-3.1347442 5.5194573 18.335487
-3.1076033 5.5396404 18.402534
-3.0759432 5.5521746 18.444172
-3.0441399 5.564765 18.485998
-3.012105 5.5772529 18.527481
-2.9785092 5.5871382 18.56032
-2.9455869 5.5985661 18.598284
-2.9154942 5.6157508 18.655371
-2.8843789 5.6314063 18.707378
-2.8517342 5.6444669 18.750765
-2.8189375 5.657588 18.794353
-2.7859886 5.6707711 18.838146
-2.7528853 5.6840153 18.882143
-2.7196269 5.6973209 18.926344
-2.6863391 5.710958 18.971647
-2.6528916 5.7246614 19.017168
-2.6192832 5.7384295 19.062906
-2.5855126 5.7522645 19.108866
-2.551579 5.7661667 19.155048
-2.5174809 5.7801361 19.201454
-2.4832175 5.7941742 19.248089
-2.4489145 5.8085823 19.295952
-2.4134588 5.8206949 19.336189
-2.3759882 5.828279 19.361383
-2.3384199 5.8358827 19.386642
-2.3007534 5.8435063 19.411968
-2.2629883 5.85115 19.437361
-2.2244871 5.8571358 19.457245
-2.1856537 5.8624539 19.474913
-2.1467497 5.8677831 19.492615
-2.1083915 5.8748384 19.516052
-2.0700245 5.8821492 19.540339
-2.0315623 5.8894787 19.564688
-1.993004 5.8968263 19.589096
-1.9543494 5.9041924 19.613565
-1.9155979 5.9115767 19.638096
-1.8767495 5.9189792 19.662687
-1.8378037 5.9264007 19.687342
-1.7987601 5.9338408 19.712057
-1.7593428 5.9403691 19.733744
-1.7219726 5.9542909 19.779991
-1.6844361 5.9683104 19.826565
-1.6467223 5.9823966 19.873358
-1.6088302 5.9965491 19.920372
7.9764609 6.0085149 19.960123
7.9931793 5.9896669 19.897511
8.0100422 5.9711223 19.835905
8.0293875 5.9546103 19.781054
8.0486269 5.93819 19.726505
8.067585 5.921731 19.671829
8.0979862 5.9137964 19.64547
8.1283045 5.9058819 19.619179
8.1585426 5.8979888 19.592958
8.1886997 5.8901172 19.566809
8.2187757 5.882266 19.540728
8.2492533 5.8747787 19.515854
8.2820387 5.869 19.496658
8.3147593 5.8632331 19.477501
8.347415 5.8574772 19.45838
8.3800077 5.8517327 19.439297
8.4125366 5.8459997 19.420252
8.4449997 5.8402772 19.401241
8.4774008 5.8345661 19.382269
8.509737 5.8288651 19.363331
8.5420113 5.8231764 19.344433
8.5742216 5.8174977 19.325569
8.60637 5.811831 19.306744
8.6393967 5.8068075 19.290056
8.6723728 5.8017974 19.273413
8.7052917 5.7967954 19.256796
8.7381544 5.7918024 19.24021
8.7709608 5.7868176 19.22365
8.80371 5.7818418 19.207121
8.8466558 5.783577 19.212885
8.8927612 5.7873526 19.225428
8.9389286 5.7911339 19.237989
8.9851542 5.7949195 19.250565
9.0314417 5.7987108 19.263159
9.0777893 5.8025064 19.275768
9.124197 5.8063073 19.288395
9.1706657 5.810113 19.301037
9.2174902 5.8141093 19.314312
9.2638245 5.8177633 19.32645
9.3103132 5.8214812 19.338802
9.3568878 5.8252211 19.351225
9.4035215 5.8289652 19.363663
9.4502153 5.8327136 19.376116
9.4969702 5.8364677 19.388586
9.5435553 5.840086 19.400606
9.5893726 5.8432059 19.410971
9.6305819 5.8435035 19.411959
9.6717968 5.8438015 19.412949
9.7130175 5.8441005 19.413942
9.754241 5.844399 19.414934
9.7954693 5.8446975 19.415926
9.8367004 5.844996 19.416918
9.8779383 5.8452954 19.417912
9.919178 5.8455939 19.418903
9.9604244 5.8458929 19.419897
10.001668 5.8461885 19.420879
10.042912 5.8464828 19.421856
10.084162 5.8467765 19.422832
10.125415 5.8470707 19.423809
10.166673 5.8473644 19.424786
10.207933 5.8476586 19.425762
10.249199 5.8479524 19.426739
10.290468 5.8482466 19.427715
10.331747 5.8485432 19.428701
10.375231 5.850081 19.433809
10.432274 5.8592224 19.464176
10.489496 5.8683925 19.49464
10.54727 5.877799 19.525888
10.605234 5.8872385 19.557245
10.663386 5.8967085 19.588705
10.721724 5.9062085 19.620264
10.780238 5.9157329 19.651903
10.838922 5.9252772 19.683609
10.896708 5.9342604 19.713451
10.954671 5.9432712 19.743385
11.012809 5.9523091 19.773409
11.086445 5.969624 19.830929
11.153477 5.9832668 19.876249
11.206997 5.9895868 19.897243
11.26063 5.9959197 19.918282
11.29171 5.990242 19.89942
11.320229 5.9832516 19.876198
11.34868 5.9762769 19.853029
11.377064 5.9693189 19.829914
11.405383 5.9623771 19.806854
11.437173 5.9572935 19.789967
11.475275 5.9555221 19.784082
11.513439 5.9537964 19.778349
11.553128 5.9528685 19.775267
11.591681 5.951364 19.770269
11.630215 5.9498606 19.765274
11.66873 5.9483581 19.760283
11.707224 5.9468551 19.755291
11.7457 5.9453545 19.750305
11.784156 5.9438534 19.745319
11.822593 5.9423537 19.740337
11.86101 5.9408545 19.735357
11.899407 5.9393563 19.730379
-9.3497839 3.3818367 11.156623
-9.3366728 3.3855691 11.168936
-9.323534 3.3893099 11.181276
-9.3103657 3.3930588 11.193645
-9.2971678 3.396816 11.206039
-9.2839413 3.4005816 11.218462
-9.2706852 3.404356 11.230913
-9.2573996 3.4081383 11.243391
-9.243804 3.4118254 11.255555
-9.2301435 3.4155078 11.267703
-9.2164536 3.4191978 11.279877
-9.2043791 3.4235079 11.294095
-9.1925669 3.427938 11.30871
-9.1807251 3.4323797 11.323363
-9.1688519 3.4368329 11.338055
-9.1569481 3.4412978 11.352784
-9.1450138 3.4457743 11.367552
-9.1330471 3.4502623 11.382358
-9.1210499 3.4547622 11.397202
-9.1090212 3.4592736 11.412086
-9.096961 3.4637969 11.427008
-9.0848703 3.4683323 11.44197
-9.0721607 3.4726548 11.45623
-9.0571079 3.4761012 11.4676
-9.0420256 3.4795547 11.478992
-9.0269136 3.4830146 11.490407
-9.0117702 3.4864817 11.501844
-8.9965982 3.4899554 11.513305
-8.9813938 3.4934361 11.524787
-8.9661608 3.4969237 11.536293
-8.9508972 3.5004184 11.547822
-8.9356022 3.5039201 11.559374
-8.9202776 3.5074289 11.57095
-8.9043989 3.5107384 11.581867
-8.887845 3.5137992 11.591965
-8.8712616 3.5168648 11.602078
-8.8546495 3.5199363 11.612211
-8.8380089 3.5230131 11.622361
-8.8213377 3.5260949 11.632528
-8.8046389 3.5291827 11.642715
-8.7879105 3.5322754 11.652918
-8.7711525 3.5353739 11.663139
-8.754365 3.5384774 11.673378
-8.7375479 3.5415869 11.683636
-8.7204199 3.5445869 11.693533
-8.7029676 3.547472 11.703051
-8.6854877 3.5503619 11.712584
-8.6679783 3.5532563 11.722133
-8.6504402 3.5561554 11.731697
-8.6328745 3.5590594 11.741278
-8.6152792 3.5619678 11.750873
-8.5976553 3.5648816 11.760485
-8.5800028 3.5677998 11.770112
-8.5623217 3.5707228 11.779755
-8.544611 3.5736506 11.789413
-8.5268707 3.5765829 11.799088
-8.509099 3.579519 11.808773
-8.4912977 3.5824597 11.818475
-8.4734669 3.5854056 11.828193
-8.4556074 3.588356 11.837927
-8.4377174 3.5913115 11.847676
-8.4197989 3.5942717 11.857442
-8.4018507 3.5972371 11.867225
-8.383873 3.6002071 11.877023
-8.3658657 3.6031818 11.886837
-8.3478279 3.6061618 11.896667
-8.3289003 3.6087739 11.905285
-8.3092813 3.6111012 11.912962
-8.2896366 3.6134312 11.92065
-8.2699661 3.6157646 11.928347
-8.2502718 3.6181009 11.936054
-8.2305508 3.62044 11.943771
-8.210804 3.6227822 11.951498
-8.1910324 3.6251276 11.959235
-8.1712351 3.627476 11.966983
-8.151412 3.6298275 11.97474
-8.1314707 3.6321406 11.982371
-8.1114435 3.6344299 11.989923
-8.0913916 3.6367221 11.997485
-8.0713148 3.6390171 12.005056
-8.0512123 3.6413152 12.012638
-8.0310841 3.643616 12.020228
-8.010931 3.6459198 12.027828
-7.9907517 3.6482263 12.035438
-7.9705477 3.6505361 12.043057
-7.9503174 3.6528485 12.050686
-7.9300618 3.655164 12.058325
-7.9097805 3.6574824 12.065973
-7.889473 3.6598036 12.073631
-7.8691401 3.662128 12.081299
-7.8487816 3.6644554 12.088977
-7.8283968 3.6667857 12.096664
-7.8079863 3.6691189 12.104362
-7.7876072 3.6714821 12.112158
-7.7677269 3.6740968 12.120784
-7.747818 3.6767149 12.129421
-7.7278781 3.6793358 12.138067
-7.7079105 3.6819606 12.146727
-7.6879148 3.6845891 12.155398
-7.6678896 3.6872213 12.164082
-7.6478362 3.6898575 12.172778
-7.6277542 3.6924973 12.181487
-7.6076427 3.6951408 12.190207
-7.587503 3.6977882 12.198941
-7.5673342 3.7004392 12.207687
