# .PCD v0.7 - Point Cloud Data file format
VERSION 0.7
FIELDS x y z
SIZE 4 4 4
TYPE F F F
COUNT 1 1 1
WIDTH 1612
HEIGHT 1
VIEWPOINT 0 0 0 1 0 0 0
POINTS 1612
DATA ascii
4.4912758 6.2439051 17.646679
4.5362129 6.2461176 17.646679
4.604002 6.2495089 17.646679
4.6717911 6.2526903 17.578888
4.7395821 6.2557592 17.578888
4.6717911 6.252883 17.646679
4.7395821 6.2560034 17.646679
4.4882488 6.2439051 17.714466
4.5362129 6.2462683 17.714466
4.604002 6.2495871 17.714466
4.4883003 6.2439051 17.782257
4.5362129 6.2462587 17.782257
4.604002 6.2496119 17.782257
4.6717911 6.2528486 17.714466
4.7395821 6.2558794 17.714466
4.6717911 6.2529211 17.782257
4.7395821 6.2559805 17.782257
4.2650566 6.2330065 17.850044
4.3328457 6.2363253 17.850044
4.2650566 6.2331095 17.917835
4.3328457 6.2362356 17.917835
4.4006348 6.2396746 17.850044
4.4684238 6.2430048 17.850044
4.4006348 6.2395506 17.917835
4.4684238 6.2429647 17.917835
4.2650566 6.2347879 17.985626
4.3328457 6.2374582 17.985626
4.2650566 6.2382765 18.053413
4.3328457 6.2411528 18.053413
4.4006348 6.2404203 17.985626
4.4684238 6.243556 17.985626
4.3925953 6.2439051 18.053413
4.4006348 6.2439051 18.048096
4.4684238 6.2439051 17.994354
4.4006348 6.2442751 18.053413
4.4684238 6.2472486 18.053413
4.4864731 6.2439051 17.850044
4.5362129 6.2463789 17.850044
4.604002 6.2497969 17.850044
4.4870415 6.2439051 17.917835
4.5362129 6.2463598 17.917835
4.604002 6.2497778 17.917835
4.6717911 6.2531672 17.850044
4.7395821 6.2562475 17.850044
4.6717911 6.2531385 17.917835
4.7395821 6.2562704 17.917835
4.4761276 6.2439051 17.985626
4.5362129 6.2466707 17.985626
4.604002 6.250062 17.985626
4.5362129 6.250041 18.053413
4.604002 6.2528296 18.053413
4.6717911 6.2535868 17.985626
4.7395821 6.256917 17.985626
4.6717911 6.2557631 18.053413
4.7395821 6.2587214 18.053413
3.7227421 6.2371931 18.121204
3.7905312 6.2365007 18.121204
3.7227421 6.239953 18.188992
3.7905312 6.2394094 18.188992
3.8583202 6.2357874 18.121204
3.9261112 6.2356558 18.121204
3.8583202 6.2388544 18.188992
3.9261112 6.2388201 18.188992
3.7227421 6.2424631 18.256783
3.7905312 6.2423754 18.256783
3.6968136 6.2439051 18.32457
3.7227421 6.2439051 18.303478
3.7905312 6.2439051 18.29401
3.7227421 6.244525 18.32457
3.7905312 6.245223 18.32457
3.8583202 6.2427874 18.256783
3.9261112 6.2438135 18.256783
3.8583202 6.2439051 18.274544
3.9261112 6.2439051 18.257736
3.8583202 6.247077 18.32457
3.9261112 6.2498713 18.32457
3.9939003 6.2361059 18.121204
4.0616894 6.2369318 18.121204
3.9939003 6.2403975 18.188992
4.0616894 6.2431269 18.188992
4.1294785 6.2386675 18.121204
4.1972675 6.2405539 18.121204
4.0818005 6.2439051 18.188992
4.1294785 6.2439051 18.172493
4.1972675 6.2439051 18.154316
4.1294785 6.2455854 18.188992
4.1972675 6.2474966 18.188992
3.9306049 6.2439051 18.256783
3.9939003 6.2439051 18.236984
4.0616894 6.2439051 18.199696
3.9939003 6.2455492 18.256783
4.0616894 6.2481356 18.256783
3.9939003 6.2523146 18.32457
4.0616894 6.254735 18.32457
4.1294785 6.2505426 18.256783
4.1972675 6.2526636 18.256783
4.1294785 6.2569838 18.32457
4.1972675 6.2588034 18.32457
3.7227421 6.2465124 18.392361
3.7905312 6.2486563 18.392361
3.7227421 6.2486162 18.460148
3.7905312 6.2516012 18.460148
3.8583202 6.2510977 18.392361
3.9261112 6.2537355 18.392361
3.8583202 6.2544336 18.460148
3.9261112 6.2570181 18.460148
3.7227421 6.2512655 18.527939
3.7905312 6.254159 18.527939
3.7227421 6.2536955 18.595726
3.7905312 6.2568483 18.595726
3.8583202 6.2571173 18.527939
3.9261112 6.2601194 18.527939
3.8583202 6.2598658 18.595726
3.9261112 6.2634916 18.595726
3.9939003 6.2565355 18.392361
4.0616894 6.2594137 18.392361
3.9939003 6.2597475 18.460148
4.0616894 6.2632284 18.460148
4.1294785 6.2621126 18.392361
4.1972675 6.2641954 18.392361
4.1294785 6.2670145 18.460148
4.1972675 6.2691164 18.460148
3.9939003 6.263566 18.527939
4.0616894 6.2677011 18.527939
3.9939003 6.2684488 18.595726
4.0616894 6.2732935 18.595726
4.1294785 6.2722826 18.527939
4.1972675 6.274457 18.527939
4.1294785 6.2772055 18.595726
4.1972675 6.2792463 18.595726
4.2650566 6.2424631 18.121204
4.3026962 6.2439051 18.121204
4.3328457 6.2439051 18.101135
4.3328457 6.2451944 18.121204
4.2650566 6.2439051 18.136482
4.2650566 6.249095 18.188992
4.3328457 6.250844 18.188992
4.4006348 6.2482538 18.121204
4.4684238 6.2515192 18.121204
4.4006348 6.2530203 18.188992
4.4684238 6.2557554 18.188992
4.2650566 6.2543783 18.256783
4.3328457 6.2558546 18.256783
4.2650566 6.2602434 18.32457
4.3328457 6.2615633 18.32457
4.4006348 6.2577791 18.256783
4.4684238 6.2602777 18.256783
4.4006348 6.2630987 18.32457
4.4684238 6.2649126 18.32457
4.5362129 6.2547941 18.121204
4.604002 6.2576571 18.121204
4.5362129 6.2587137 18.188992
4.604002 6.2614336 18.188992
4.6717911 6.2603197 18.121204
4.7395821 6.2630529 18.121204
4.6717911 6.2639723 18.188992
4.7395821 6.2664881 18.188992
4.5362129 6.2630415 18.256783
4.604002 6.2656908 18.256783
4.5362129 6.2670317 18.32457
4.604002 6.2692575 18.32457
4.6717911 6.2678881 18.256783
4.7395821 6.269599 18.256783
4.6717911 6.2711592 18.32457
4.7395821 6.2725859 18.32457
4.2650566 6.2657118 18.392361
4.3328457 6.2671175 18.392361
4.2650566 6.2700605 18.460148
4.3328457 6.2712469 18.460148
4.4006348 6.268548 18.392361
4.4684238 6.269927 18.392361
4.4006348 6.2726412 18.460148
4.4684238 6.2740259 18.460148
4.2650566 6.2747297 18.527939
4.3328457 6.2755499 18.527939
4.2650566 6.2797995 18.595726
4.3328457 6.2803278 18.595726
4.4006348 6.2767572 18.527939
4.4684238 6.2780409 18.527939
4.4006348 6.2810755 18.595726
4.4684238 6.2821131 18.595726
4.5362129 6.271287 18.392361
4.604002 6.2726603 18.392361
4.5362129 6.275321 18.460148
4.604002 6.2765875 18.460148
4.6717911 6.2740698 18.392361
4.7395821 6.2754068 18.392361
4.6717911 6.2778311 18.460148
4.7395821 6.2789392 18.460148
4.5362129 6.2792997 18.527939
4.604002 6.2805681 18.527939
4.5362129 6.2832994 18.595726
4.604002 6.2844687 18.595726
4.6717911 6.2818327 18.527939
4.7395821 6.2829638 18.527939
4.6717911 6.2855349 18.595726
4.7395821 6.2863779 18.595726
4.8073711 6.2588034 17.578888
4.8751602 6.2618952 17.578888
4.8073711 6.2590418 17.646679
4.8751602 6.2619581 17.646679
4.9429493 6.2638578 17.578888
5.0107384 6.2620611 17.578888
4.9429493 6.2635832 17.646679
5.0107384 6.2618608 17.646679
4.8073711 6.2589483 17.714466
4.8751602 6.2619314 17.714466
4.8073711 6.2590685 17.782257
4.8751602 6.2621107 17.782257
4.9429493 6.2635603 17.714466
5.0107384 6.2616968 17.714466
4.9429493 6.2638559 17.782257
5.0107384 6.2617712 17.782257
5.0785275 6.2578173 17.578888
5.1463165 6.2532434 17.578888
5.0785275 6.2578077 17.646679
5.1463165 6.2531805 17.646679
5.2793293 6.2439051 17.578888
5.2818947 6.2437201 17.578888
5.2818947 6.2439051 17.529251
5.2141056 6.2485266 17.578888
5.2769356 6.2439051 17.646679
5.2818947 6.2435446 17.646679
5.2141056 6.2483969 17.646679
5.0785275 6.2575045 17.714466
5.1463165 6.2529421 17.714466
5.0785275 6.2573328 17.782257
5.1463165 6.2527647 17.782257
5.2744732 6.2439051 17.714466
5.2818947 6.2433672 17.714466
5.2141056 6.2482138 17.714466
5.2716331 6.2439051 17.782257
5.2818947 6.2431631 17.782257
5.2141056 6.2480154 17.782257
4.8073711 6.2591887 17.850044
4.8751602 6.2619734 17.850044
4.8073711 6.2593355 17.917835
4.8751602 6.262126 17.917835
4.9429493 6.2634134 17.850044
5.0107384 6.2614031 17.850044
4.9429493 6.2635145 17.917835
5.0107384 6.2613211 17.917835
4.8073711 6.2602053 17.985626
4.8751602 6.263423 17.985626
4.8073711 6.2616377 18.053413
4.8751602 6.2646971 18.053413
4.9429493 6.2646418 17.985626
5.0107384 6.2617216 17.985626
4.9429493 6.2653055 18.053413
5.0107384 6.2621717 18.053413
5.0785275 6.257247 17.850044
5.1463165 6.2526884 17.850044
5.0785275 6.2570047 17.917835
5.1463165 6.2524328 17.917835
5.2692738 6.2439051 17.850044
5.2818947 6.2429857 17.850044
5.2141056 6.2478704 17.850044
5.2652626 6.2439051 17.917835
5.2818947 6.2427034 17.917835
5.2141056 6.2475805 17.917835
5.0785275 6.2569799 17.985626
5.1463165 6.2522612 17.985626
5.0785275 6.2579432 18.053413
5.1463165 6.253562 18.053413
5.2660236 6.2439051 17.985626
5.2818947 6.2427988 17.985626
5.2141056 6.2475176 17.985626
5.2818947 6.2439051 18.041878
5.2141056 6.2490206 18.053413
5.2818947 6.2442217 18.053413
5.3496838 6.2388372 17.578888
5.4174728 6.2340384 17.578888
5.3496838 6.2386942 17.646679
5.4174728 6.2339258 17.646679
5.4852619 6.229373 17.578888
5.5530529 6.2250738 17.578888
5.4852619 6.22927 17.646679
5.5530529 6.2249193 17.646679
5.3496838 6.2385187 17.714466
5.4174728 6.2337351 17.714466
5.3496838 6.2383375 17.782257
5.4174728 6.2335501 17.782257
5.4852619 6.2290945 17.714466
5.5530529 6.2247934 17.714466
5.4852619 6.2288733 17.782257
5.5530529 6.224576 17.782257
5.620842 6.2208853 17.578888
5.6886311 6.2168036 17.578888
5.620842 6.2206526 17.646679
5.6886311 6.2165422 17.646679
5.7564201 6.2142477 17.578888
5.8242092 6.2136927 17.578888
5.7564201 6.2140799 17.646679
5.8242092 6.2136297 17.646679
5.620842 6.2205839 17.714466
5.6886311 6.2166014 17.714466
5.620842 6.2204046 17.782257
5.6886311 6.2164373 17.782257
5.7564201 6.2142019 17.714466
5.8242092 6.2137003 17.714466
5.7564201 6.2140951 17.782257
5.8242092 6.2136583 17.782257
5.3496838 6.2381639 17.850044
5.4174728 6.2333994 17.850044
5.3496838 6.2378855 17.917835
5.4174728 6.2331514 17.917835
5.4852619 6.2287588 17.850044
5.5530529 6.2244387 17.850044
5.4852619 6.22857 17.917835
5.5530529 6.224288 17.917835
5.3496838 6.2381277 17.985626
5.4174728 6.2334146 17.985626
5.2862892 6.2439051 18.053413
5.3496838 6.2392912 18.053413
5.4174728 6.2343111 18.053413
5.4852619 6.2286158 17.985626
5.5530529 6.2240629 17.985626
5.4852619 6.2293863 18.053413
5.5530529 6.2248983 18.053413
5.620842 6.2201605 17.850044
5.6886311 6.2160559 17.850044
5.620842 6.2200823 17.917835
5.6886311 6.2161818 17.917835
5.7564201 6.213769 17.850044
5.8242092 6.2134829 17.850044
5.7564201 6.2140055 17.917835
5.8242092 6.2136545 17.917835
5.620842 6.21984 17.985626
5.6886311 6.216033 17.985626
5.620842 6.2208014 18.053413
5.6886311 6.2169733 18.053413
5.7564201 6.213954 17.985626
5.8242092 6.2136946 17.985626
5.7564201 6.2148638 18.053413
5.8242092 6.2146254 18.053413
4.8073711 6.26542 18.121204
4.8751602 6.2675295 18.121204
4.8073711 6.2685137 18.188992
4.8751602 6.2699594 18.188992
4.9429493 6.2676153 18.121204
5.0107384 6.2644663 18.121204
4.9429493 6.269557 18.188992
5.0107384 6.2665968 18.188992
4.8073711 6.2710962 18.256783
4.8751602 6.2724524 18.256783
4.8073711 6.2738276 18.32457
4.8751602 6.274888 18.32457
4.9429493 6.2719297 18.256783
5.0107384 6.2689543 18.256783
4.9429493 6.2742491 18.32457
5.0107384 6.2713537 18.32457
5.0785275 6.2603788 18.121204
5.1463165 6.2558661 18.121204
5.0785275 6.2627058 18.188992
5.1463165 6.2583227 18.188992
5.2141056 6.2510252 18.121204
5.2818947 6.2462149 18.121204
5.2141056 6.2536402 18.188992
5.2818947 6.2488909 18.188992
5.0785275 6.2650023 18.256783
5.1463165 6.2606707 18.256783
5.0785275 6.2674265 18.32457
5.1463165 6.263051 18.32457
5.2141056 6.2561636 18.256783
5.2818947 6.2513552 18.256783
5.2141056 6.2585764 18.32457
5.2818947 6.2539072 18.32457
4.8073711 6.2766466 18.392361
4.8751602 6.2776098 18.392361
4.8073711 6.2798986 18.460148
4.8751602 6.2805433 18.460148
4.9429493 6.2767515 18.392361
5.0107384 6.2737055 18.392361
4.9429493 6.2794542 18.460148
5.0107384 6.2762423 18.460148
4.8073711 6.2835226 18.527939
4.8751602 6.283433 18.527939
4.8073711 6.2866621 18.595726
4.8751602 6.2863531 18.595726
4.9429493 6.2819242 18.527939
5.0107384 6.2785482 18.527939
4.9429493 6.2846766 18.595726
5.0107384 6.2811518 18.595726
5.0785275 6.2697001 18.392361
5.1463165 6.2653246 18.392361
5.0785275 6.2721243 18.460148
5.1463165 6.2676992 18.460148
5.2141056 6.2609358 18.392361
5.2818947 6.2563238 18.392361
5.2141056 6.2633219 18.460148
5.2818947 6.2588434 18.460148
5.0785275 6.2743864 18.527939
5.1463165 6.2700167 18.527939
5.0785275 6.276803 18.595726
5.1463165 6.2723646 18.595726
5.2141056 6.265687 18.527939
5.2818947 6.2614298 18.527939
5.2141056 6.2680407 18.595726
5.2818947 6.2637033 18.595726
5.3139668 6.2439051 18.121204
5.3496838 6.2413015 18.121204
5.4174728 6.2362967 18.121204
5.3496838 6.2439051 18.186226
5.3512573 6.2439051 18.188992
5.4174728 6.2390375 18.188992
5.3496838 6.2440214 18.188992
5.4852619 6.2314234 18.121204
5.5530529 6.2270842 18.121204
5.4852619 6.2342234 18.188992
5.5530529 6.2295656 18.188992
5.3860989 6.2439051 18.256783
5.4174728 6.2416735 18.256783
5.3496838 6.2464952 18.256783
5.4174728 6.2439051 18.315128
5.3496838 6.249156 18.32457
5.4174728 6.2442713 18.32457
5.4852619 6.2369127 18.256783
5.5530529 6.2321177 18.256783
5.422451 6.2439051 18.32457
5.4852619 6.2393141 18.32457
5.5530529 6.2344828 18.32457
5.620842 6.2229147 18.121204
5.6886311 6.2189093 18.121204
5.620842 6.2250223 18.188992
5.6886311 6.2208624 18.188992
5.7564201 6.2167463 18.121204
5.8242092 6.216466 18.121204
5.7564201 6.2187433 18.188992
5.8242092 6.2185755 18.188992
5.620842 6.2274103 18.256783
5.6886311 6.2234144 18.256783
5.620842 6.2297068 18.32457
5.6886311 6.2256365 18.32457
5.7564201 6.2213984 18.256783
5.8242092 6.2211161 18.256783
5.7564201 6.2237368 18.32457
5.8242092 6.2235479 18.32457
5.3496838 6.2516565 18.392361
5.4174728 6.2469587 18.392361
5.3496838 6.2542429 18.460148
5.4174728 6.2494612 18.460148
5.460022 6.2439051 18.392361
5.4852619 6.2420549 18.392361
5.5530529 6.2370806 18.392361
5.4852619 6.2439051 18.443233
5.4936543 6.2439051 18.460148
5.5530529 6.2396307 18.460148
5.4852619 6.2445135 18.460148
5.3496838 6.2570257 18.527939
5.4174728 6.2521372 18.527939
5.3496838 6.259244 18.595726
5.4174728 6.2544661 18.595726
5.5314674 6.2439051 18.527939
5.5530529 6.2423658 18.527939
5.4852619 6.2472029 18.527939
5.5530529 6.2439051 18.567543
5.4852619 6.2497072 18.595726
5.5530529 6.244977 18.595726
5.620842 6.2322187 18.392361
5.6886311 6.2282171 18.392361
5.620842 6.2348871 18.460148
5.6886311 6.2307901 18.460148
5.7564201 6.2263422 18.392361
5.8242092 6.2261038 18.392361
5.7564201 6.2288847 18.460148
5.8242092 6.2287035 18.460148
5.620842 6.2375803 18.527939
5.6886311 6.233386 18.527939
5.5674553 6.2439051 18.595726
5.620842 6.2400599 18.595726
5.6886311 6.2359228 18.595726
5.7564201 6.2313185 18.527939
5.8242092 6.2311125 18.527939
5.7564201 6.2341318 18.595726
5.8242092 6.233901 18.595726
5.8919983 6.2429743 16.494263
5.8919983 6.2439051 16.471214
5.9597874 6.2429152 16.494263
5.9597874 6.2439051 16.469688
5.8919983 6.2400122 16.56205
5.9597874 6.2400618 16.56205
6.0275764 6.2430658 16.494263
6.0275764 6.2439051 16.473324
6.0953655 6.2431688 16.494263
6.0953655 6.2439051 16.475842
6.0275764 6.2401915 16.56205
6.0953655 6.2403097 16.56205
5.8919983 6.2369661 16.629841
5.9597874 6.2371035 16.629841
5.8919983 6.2342901 16.697628
5.9597874 6.2344503 16.697628
6.0275764 6.2372198 16.629841
6.0953655 6.23734 16.629841
6.0275764 6.2345686 16.697628
6.0953655 6.2347021 16.697628
6.1631546 6.2433043 16.494263
6.1631546 6.2439051 16.479183
6.2309437 6.2434378 16.494263
6.2309437 6.2439051 16.482456
6.1631546 6.2404528 16.56205
6.2309437 6.2405901 16.56205
6.2987328 6.2435446 16.494263
6.2987328 6.2439051 16.485134
6.3665237 6.2436934 16.494263
6.3665237 6.2439051 16.488934
6.2987328 6.2407122 16.56205
6.3665237 6.2408457 16.56205
6.1631546 6.2374811 16.629841
6.2309437 6.2376223 16.629841
6.1631546 6.2348471 16.697628
6.2309437 6.2349825 16.697628
6.2987328 6.2377481 16.629841
6.3665237 6.237874 16.629841
6.2987328 6.2351141 16.697628
6.3665237 6.2352457 16.697628
5.8919983 6.2316179 16.765419
5.9597874 6.2317629 16.765419
5.8919983 6.2290487 16.833206
5.9597874 6.2291899 16.833206
6.0275764 6.2318869 16.765419
6.0953655 6.2320299 16.765419
6.0275764 6.2293348 16.833206
6.0953655 6.2294817 16.833206
5.8919983 6.2265043 16.900997
5.9597874 6.2266531 16.900997
5.8919983 6.2240152 16.968784
5.9597874 6.224124 16.968784
6.0275764 6.2268 16.900997
6.0953655 6.2269449 16.900997
6.0275764 6.224267 16.968784
6.0953655 6.2244024 16.968784
6.1631546 6.2321711 16.765419
6.2309437 6.232316 16.765419
6.1631546 6.2296228 16.833206
6.2309437 6.2297869 16.833206
6.2987328 6.2324495 16.765419
6.3665237 6.232564 16.765419
6.2987328 6.2299261 16.833206
6.3665237 6.2300329 16.833206
6.1631546 6.2270975 16.900997
6.2309437 6.2272406 16.900997
6.1631546 6.2245607 16.968784
6.2309437 6.2246885 16.968784
6.2987328 6.2273989 16.900997
6.3665237 6.227519 16.900997
6.2987328 6.2248507 16.968784
6.3665237 6.2249651 16.968784
6.4343128 6.2436075 16.494263
6.4343128 6.2439051 16.486698
6.4834042 6.2439051 16.494263
6.5021019 6.2442465 16.494263
6.4343128 6.2408571 16.56205
6.5021019 6.2413263 16.56205
6.5021019 6.2439051 16.502438
6.5121708 6.2439051 16.494263
6.569891 6.2393198 16.494263
6.6376801 6.2253218 16.494263
6.569891 6.2363577 16.56205
6.6376801 6.2233381 16.56205
6.4343128 6.2379274 16.629841
6.5021019 6.2383089 16.629841
6.4343128 6.235301 16.697628
6.5021019 6.2355566 16.697628
6.569891 6.2331915 16.629841
6.6376801 6.2212954 16.629841
6.569891 6.2304277 16.697628
6.6376801 6.2188101 16.697628
6.8540573 6.176116 16.494263
6.9088364 6.163867 16.494263
6.8470612 6.176116 16.56205
6.9088364 6.1610098 16.56205
6.7054691 6.210103 16.494263
6.7732582 6.1956015 16.494263
6.7054691 6.2087965 16.56205
6.7732582 6.1940145 16.56205
6.8410473 6.179265 16.494263
6.8410473 6.1776304 16.56205
6.8440781 6.176116 16.629841
6.9088364 6.1602621 16.629841
6.8408642 6.176116 16.697628
6.8410473 6.1760683 16.697628
6.8410473 6.176116 16.693932
6.9088364 6.1595297 16.697628
6.7054691 6.2078886 16.629841
6.7732582 6.1933279 16.629841
6.7054691 6.2061777 16.697628
6.7732582 6.1924047 16.697628
6.8410473 6.1768866 16.629841
6.4343128 6.2326517 16.765419
6.5021019 6.2327833 16.765419
6.4343128 6.2301149 16.833206
6.5021019 6.2300978 16.833206
6.569891 6.2274866 16.765419
6.6376801 6.2159472 16.765419
6.569891 6.2245207 16.833206
6.6376801 6.2130976 16.833206
6.4343128 6.2275629 16.900997
6.5021019 6.2274466 16.900997
6.4343128 6.2250071 16.968784
6.5021019 6.2247972 16.968784
6.569891 6.2220182 16.900997
6.6376801 6.2109079 16.900997
6.569891 6.2199316 16.968784
6.6376801 6.2096395 16.968784
6.8369694 6.176116 16.765419
6.8410473 6.1751184 16.765419
6.9088364 6.1588659 16.765419
6.82798 6.176116 16.833206
6.8410473 6.1732073 16.833206
6.9088364 6.15804 16.833206
6.7054691 6.2036543 16.765419
6.7732582 6.1906729 16.765419
6.7054691 6.2008905 16.833206
6.7732582 6.187789 16.833206
6.8162384 6.176116 16.900997
6.8410473 6.1708536 16.900997
6.9088364 6.1568594 16.900997
6.8101768 6.176116 16.968784
6.8410473 6.1695337 16.968784
6.9088364 6.1559153 16.968784
6.7054691 6.1985636 16.900997
6.7732582 6.1851568 16.900997
6.7054691 6.197402 16.968784
6.7732582 6.1839762 16.968784
5.8919983 6.2215757 17.036575
5.9597874 6.2216597 17.036575
5.8919983 6.2191706 17.104362
5.9597874 6.219264 17.104362
6.0275764 6.2217951 17.036575
6.0953655 6.2219324 17.036575
6.0275764 6.2193937 17.104362
6.0953655 6.2195368 17.104362
5.8919983 6.2168264 17.172153
5.9597874 6.2169104 17.172153
5.8919983 6.2146273 17.239944
5.9597874 6.2146692 17.239944
6.0275764 6.2170267 17.172153
6.0953655 6.2171583 17.172153
6.0275764 6.2147188 17.239944
6.0953655 6.2147989 17.239944
6.1631546 6.2220831 17.036575
6.2309437 6.2222242 17.036575
6.1631546 6.2196913 17.104362
6.2309437 6.2198496 17.104362
6.2987328 6.2223577 17.036575
6.3665237 6.2224798 17.036575
6.2987328 6.2199793 17.104362
6.3665237 6.2201052 17.104362
6.1631546 6.2173052 17.172153
6.2309437 6.2174501 17.172153
6.1631546 6.2148886 17.239944
6.2309437 6.2149992 17.239944
6.2987328 6.2175989 17.172153
6.3665237 6.2176924 17.172153
6.2987328 6.2151423 17.239944
6.3665237 6.2152109 17.239944
5.8919983 6.2136126 17.307732
5.9597874 6.2136278 17.307732
5.8919983 6.2137117 17.375523
5.9597874 6.2137327 17.375523
6.0275764 6.213645 17.307732
6.0953655 6.2136869 17.307732
6.0275764 6.2137651 17.375523
6.0953655 6.2137976 17.375523
5.8919983 6.2136889 17.44331
5.9597874 6.2137098 17.44331
5.8919983 6.2136469 17.511101
5.9597874 6.2136698 17.511101
6.0275764 6.2137403 17.44331
6.0953655 6.2137766 17.44331
6.0275764 6.2137003 17.511101
6.0953655 6.2137365 17.511101
6.1631546 6.2137461 17.307732
6.2309437 6.2138319 17.307732
6.1631546 6.2138739 17.375523
6.2309437 6.2139425 17.375523
6.2987328 6.2139406 17.307732
6.3665237 6.2139769 17.307732
6.2987328 6.2140112 17.375523
6.3665237 6.2140036 17.375523
6.1631546 6.2138472 17.44331
6.2309437 6.2139101 17.44331
6.1631546 6.2138071 17.511101
6.2309437 6.2138643 17.511101
6.2987328 6.2139654 17.44331
6.3665237 6.2139387 17.44331
6.2987328 6.2139101 17.511101
6.3665237 6.2139025 17.511101
6.4343128 6.2225275 17.036575
6.5021019 6.2222242 17.036575
6.4343128 6.2201643 17.104362
6.5021019 6.2196741 17.104362
6.569891 6.2173643 17.036575
6.6376801 6.2078009 17.036575
6.569891 6.2146235 17.104362
6.6376801 6.2051878 17.104362
6.4343128 6.2177668 17.172153
6.5021019 6.2171965 17.172153
6.4343128 6.2152987 17.239944
6.5021019 6.2147055 17.239944
6.569891 6.2119513 17.172153
6.6376801 6.202384 17.172153
6.569891 6.2094011 17.239944
6.6376801 6.1997423 17.239944
6.8069973 6.176116 17.036575
6.8410473 6.1688299 17.036575
6.9088364 6.1553755 17.036575
6.8033772 6.176116 17.104362
6.8410473 6.168149 17.104362
6.9088364 6.1547213 17.104362
6.7054691 6.1966524 17.036575
6.7732582 6.1833315 17.036575
6.7054691 6.1948023 17.104362
6.7732582 6.1824083 17.104362
6.7957363 6.176116 17.172153
6.8410473 6.1672087 17.172153
6.9088364 6.1540937 17.172153
6.7800961 6.176116 17.239944
6.8410473 6.1653948 17.239944
6.9088364 6.1533804 17.239944
6.7054691 6.1920424 17.172153
6.7732582 6.1804457 17.172153
6.7054691 6.1889696 17.239944
6.7732582 6.1773214 17.239944
6.4343128 6.2140379 17.307732
6.5021019 6.2133074 17.307732
6.4343128 6.2139692 17.375523
6.5021019 6.2129812 17.375523
6.569891 6.2077837 17.307732
6.6376801 6.1979074 17.307732
6.569891 6.2071218 17.375523
6.6376801 6.1971598 17.375523
6.4343128 6.2138815 17.44331
6.5021019 6.2127542 17.44331
6.4343128 6.213851 17.511101
6.5021019 6.2127562 17.511101
6.569891 6.2067995 17.44331
6.6376801 6.1968393 17.44331
6.569891 6.2066126 17.511101
6.6376801 6.1964731 17.511101
6.7674465 6.176116 17.307732
6.7732582 6.1750879 17.307732
6.7732582 6.176116 17.271545
6.7637253 6.176116 17.375523
6.7732582 6.1744032 17.375523
6.8410473 6.163497 17.307732
6.9088364 6.1524858 17.307732
6.8410473 6.1626711 17.375523
6.9088364 6.1519747 17.375523
6.7054691 6.1869116 17.307732
6.7054691 6.1862993 17.375523
6.7611866 6.176116 17.44331
6.7732582 6.1739473 17.44331
6.7584152 6.176116 17.511101
6.7732582 6.1734552 17.511101
6.8410473 6.1623583 17.44331
6.9088364 6.1517153 17.44331
6.8410473 6.1619177 17.511101
6.9088364 6.1513166 17.511101
6.7054691 6.1858873 17.44331
6.7054691 6.1854906 17.511101
7.4194012 6.0405378 16.494263
7.4511509 5.9844027 16.494263
7.4176331 6.0405378 16.56205
7.4511509 5.9800463 16.56205
7.4203339 6.0405378 16.629841
7.4511509 5.9817896 16.629841
7.4329872 6.0405378 16.697628
7.4511509 5.9972601 16.697628
6.9766254 6.151885 16.494263
7.0444145 6.139493 16.494263
6.9766254 6.145915 16.56205
7.0444145 6.1312113 16.56205
7.1122036 6.1245604 16.494263
7.1799946 6.1090918 16.494263
7.1392059 6.1083269 16.56205
7.1799946 6.0986242 16.56205
7.1799946 6.1083269 16.497803
7.1122036 6.1150179 16.56205
6.9766254 6.1454191 16.629841
7.0444145 6.130559 16.629841
6.9766254 6.1445913 16.697628
7.0444145 6.1297541 16.697628
7.136549 6.1083269 16.629841
7.1799946 6.0978785 16.629841
7.1122036 6.1144228 16.629841
7.1352501 6.1083269 16.697628
7.1799946 6.0981493 16.697628
7.1122036 6.1139002 16.697628
7.182806 6.1083269 16.494263
7.2477837 6.0933256 16.494263
7.2477837 6.1083269 16.442589
7.3155727 6.0842791 16.494263
7.2477837 6.0838728 16.56205
7.3155727 6.0747614 16.56205
7.3833618 6.0831976 16.494263
7.397274 6.176116 16.494263
7.4511509 6.1335802 16.494263
7.3833618 6.0744486 16.56205
7.3996239 6.176116 16.56205
7.4511509 6.1214457 16.56205
7.387949 6.2439051 16.494263
7.3912544 6.3116941 16.494263
7.392067 6.2439051 16.56205
7.3975449 6.3116941 16.56205
7.2477837 6.0831976 16.629841
7.3155727 6.0740461 16.629841
7.2477837 6.0846491 16.697628
7.3155727 6.0770903 16.697628
7.3833618 6.0746737 16.629841
7.403656 6.176116 16.629841
7.4511509 6.114337 16.629841
7.3833618 6.0807352 16.697628
7.4133911 6.176116 16.697628
7.4511509 6.1127367 16.697628
7.3990936 6.2439051 16.629841
7.4051685 6.3116941 16.629841
7.40872 6.2439051 16.697628
7.4143848 6.3116941 16.697628
7.4454517 6.0405378 16.765419
7.4511509 6.0253992 16.765419
7.4511509 6.0405378 16.798126
6.9766254 6.1440287 16.765419
7.0444145 6.1294622 16.765419
6.9766254 6.1436052 16.833206
7.0444145 6.1297674 16.833206
7.1396351 6.1083269 16.765419
7.1799946 6.0995474 16.765419
7.1122036 6.1145678 16.765419
7.1472473 6.1083269 16.833206
7.1799946 6.1014433 16.833206
7.1122036 6.1158152 16.833206
6.9766254 6.1435556 16.900997
7.0444145 6.1306963 16.900997
6.9766254 6.1434679 16.968784
7.0444145 6.1309977 16.968784
7.1538754 6.1083269 16.900997
7.1799946 6.1028547 16.900997
7.1122036 6.117198 16.900997
7.1552887 6.1083269 16.968784
7.1799946 6.1031103 16.968784
7.1122036 6.1175432 16.968784
7.2477837 6.0865965 16.765419
7.3155727 6.0803366 16.765419
7.2477837 6.0875597 16.833206
7.3155727 6.0794153 16.833206
7.3833618 6.0843954 16.765419
7.425127 6.176116 16.765419
7.4511509 6.1176023 16.765419
7.3833618 6.0853548 16.833206
7.4511509 6.053277 16.833206
7.4359093 6.176116 16.833206
7.4511509 6.1334391 16.833206
7.4193153 6.2439051 16.765419
7.4239063 6.3116941 16.765419
7.4284935 6.2439051 16.833206
7.4320793 6.3116941 16.833206
7.2477837 6.0892744 16.900997
7.3155727 6.0821123 16.900997
7.2477837 6.0902529 16.968784
7.3155727 6.0837793 16.968784
7.3833618 6.0896273 16.900997
7.4511509 6.0654421 16.900997
7.4409904 6.176116 16.900997
7.4511509 6.1493692 16.900997
7.3833618 6.0887518 16.968784
7.4511509 6.0626593 16.968784
7.4404297 6.176116 16.968784
7.4511509 6.1436281 16.968784
7.4334965 6.2439051 16.900997
7.4387302 6.3116941 16.900997
7.4361687 6.2439051 16.968784
7.4455242 6.3116941 16.968784
7.5121479 5.9049578 16.426472
7.5091305 5.9049578 16.494263
7.4674129 5.9727488 16.426472
7.4633369 5.9727488 16.494263
7.5111179 5.9049578 16.56205
7.4591789 5.9727488 16.56205
7.5144768 5.9049578 16.629841
7.4604893 5.9727488 16.629841
7.469656 5.9727488 16.697628
7.51894 5.9067259 16.697628
7.51894 5.9049578 16.683014
7.5204182 5.9049578 16.697628
7.51894 6.1647539 16.494263
7.51894 6.176116 16.4496
7.5427113 6.176116 16.494263
7.51894 6.150281 16.56205
7.5727119 6.176116 16.56205
7.586729 6.1981535 16.494263
7.586729 6.1836481 16.56205
7.6545181 6.2322092 16.494263
7.6545181 6.2439051 16.445362
7.6782284 6.2439051 16.494263
7.7223072 6.2649527 16.494263
7.6545181 6.2180357 16.56205
7.7067757 6.2439051 16.56205
7.7223072 6.2517214 16.56205
7.51894 6.1407557 16.629841
7.586729 6.1739664 16.629841
7.586729 6.176116 16.613094
7.51894 6.1344423 16.697628
7.586729 6.1659174 16.697628
7.5909729 6.176116 16.629841
7.6080837 6.176116 16.697628
7.6545181 6.2079172 16.629841
7.7223072 6.2418928 16.629841
7.7223072 6.2439051 16.614662
7.6545181 6.199048 16.697628
7.7223072 6.2335272 16.697628
7.7900963 6.2969198 16.494263
7.8200302 6.3116941 16.494263
7.7900963 6.2855062 16.56205
7.8427219 6.3116941 16.56205
7.7262383 6.2439051 16.629841
7.7900963 6.2761831 16.629841
7.8578854 6.3097906 16.629841
7.8578854 6.3116941 16.615444
7.7433281 6.2439051 16.697628
7.7900963 6.2670832 16.697628
7.8578854 6.3018522 16.697628
7.8616123 6.3116941 16.629841
7.8771935 6.3116941 16.697628
7.4804707 5.9727488 16.765419
7.51894 5.9155054 16.765419
7.5271626 5.9049578 16.765419
7.4893951 5.9727488 16.833206
7.51894 5.9241533 16.833206
7.5326538 5.9049578 16.833206
7.4560776 6.0405378 16.833206
7.4939137 5.9727488 16.900997
7.51894 5.9300108 16.900997
7.5366497 5.9049578 16.900997
7.4607697 6.0405378 16.900997
7.493906 5.9727488 16.968784
7.51894 5.9330168 16.968784
7.5403862 5.9049578 16.968784
7.4592896 6.0405378 16.968784
7.51894 6.1314497 16.765419
7.586729 6.1581011 16.765419
7.51894 6.1339178 16.833206
7.586729 6.1544695 16.833206
7.6258945 6.176116 16.765419
7.6400414 6.176116 16.833206
7.6545181 6.1904478 16.765419
7.7223072 6.2244806 16.765419
7.6545181 6.1828146 16.833206
7.7223072 6.2154932 16.833206
7.51894 6.1359587 16.900997
7.586729 6.1557302 16.900997
7.51894 6.1312475 16.968784
7.586729 6.1519651 16.968784
7.6479568 6.176116 16.900997
7.6545181 6.1736765 16.968784
7.6545181 6.176116 16.937992
7.6617069 6.176116 16.968784
7.6545181 6.178586 16.900997
7.7223072 6.2057295 16.900997
7.7223072 6.1964045 16.968784
7.7613049 6.2439051 16.765419
7.7900963 6.2583704 16.765419
7.8578854 6.291213 16.765419
7.7810173 6.2439051 16.833206
7.7900963 6.2481394 16.833206
7.8578854 6.275588 16.833206
7.9060764 6.3116941 16.765419
7.9256744 6.2983427 16.833206
7.9256744 6.3116941 16.790787
7.9652004 6.3116941 16.833206
7.7900963 6.2321787 16.900997
7.7900963 6.2439051 16.851875
7.8227291 6.2439051 16.900997
7.8578854 6.2559748 16.900997
7.7900963 6.2177744 16.968784
7.8578854 6.239625 16.968784
7.8578854 6.2439051 16.949535
7.9256744 6.2777796 16.900997
7.9934654 6.2990561 16.900997
7.9934654 6.3116941 16.861778
7.8705368 6.2439051 16.968784
7.9256744 6.2622976 16.968784
7.9934654 6.2833319 16.968784
7.8578854 6.3307295 16.494263
7.8578854 6.3194342 16.56205
7.9256744 6.3645716 16.494263
7.9555168 6.3794832 16.494263
7.9934654 6.3984289 16.494263
7.9256744 6.3535433 16.56205
7.9779625 6.3794832 16.56205
7.9934654 6.3872709 16.56205
7.9256744 6.3441801 16.629841
7.9934654 6.377059 16.629841
7.9934654 6.3794832 16.61446
7.9256744 6.3348265 16.697628
7.9934654 6.36238 16.697628
7.9256744 6.3193979 16.765419
7.9934654 6.3425455 16.765419
7.9934654 6.3213034 16.833206
6.9766254 6.1429434 17.036575
7.0444145 6.1302805 17.036575
6.9766254 6.1422873 17.104362
7.0444145 6.1296434 17.104362
7.1527443 6.1083269 17.036575
7.1799946 6.1028872 17.036575
7.1122036 6.1166983 17.036575
7.1547756 6.1083269 17.104362
7.1799946 6.1036654 17.104362
7.1122036 6.11654 17.104362
6.9766254 6.1418295 17.172153
7.0444145 6.1297541 17.172153
6.9766254 6.1417246 17.239944
7.0444145 6.130475 17.239944
7.1662445 6.1083269 17.172153
7.1799946 6.105895 17.172153
7.1122036 6.1177759 17.172153
7.1779022 6.1083269 17.239944
7.1799946 6.1079645 17.239944
7.1122036 6.1194105 17.239944
7.2477837 6.0908804 17.036575
7.3155727 6.0845556 17.036575
7.2477837 6.0922937 17.104362
7.3155727 6.0862608 17.104362
7.3833618 6.0878935 17.036575
7.4511509 6.0800714 17.036575
7.4435844 6.176116 17.036575
7.4511509 6.1524611 17.036575
7.3833618 6.0900507 17.104362
7.4511509 6.1008387 17.104362
7.4511509 6.176116 17.072266
7.4436054 6.2439051 17.036575
7.4511509 6.2954359 17.036575
7.4511509 6.3116941 17.010803
7.4511509 6.2439051 17.070469
7.2477837 6.0935774 17.172153
7.3155727 6.0869741 17.172153
7.2477837 6.0959558 17.239944
7.3155727 6.0899248 17.239944
7.3833618 6.0917101 17.172153
7.4511509 6.101634 17.172153
7.3833618 6.09447 17.239944
7.4511509 6.104579 17.239944
6.9766254 6.1418829 17.307732
7.0444145 6.1313372 17.307732
6.9766254 6.1418428 17.375523
7.0444145 6.1316195 17.375523
7.1799946 6.1083269 17.257214
7.1122036 6.1206942 17.307732
7.1799946 6.109025 17.307732
7.1122036 6.1207838 17.375523
7.1799946 6.1091776 17.375523
6.9766254 6.1415205 17.44331
7.0444145 6.1310854 17.44331
6.9766254 6.1411695 17.511101
7.0444145 6.130765 17.511101
7.1122036 6.1202536 17.44331
7.1799946 6.10888 17.44331
7.1797199 6.1083269 17.511101
7.1799946 6.1082792 17.511101
7.1799946 6.1083269 17.505936
7.1122036 6.1197596 17.511101
7.183527 6.1083269 17.307732
7.2477837 6.0975313 17.307732
7.3155727 6.0920954 17.307732
7.1841946 6.1083269 17.375523
7.2477837 6.0971994 17.375523
7.3155727 6.091506 17.375523
7.3833618 6.0962191 17.307732
7.4511509 6.1060381 17.307732
7.3833618 6.096797 17.375523
7.4511509 6.1070776 17.375523
7.1827641 6.1083269 17.44331
7.2477837 6.0970469 17.44331
7.3155727 6.0916452 17.44331
7.2477837 6.0966215 17.511101
7.3155727 6.0918818 17.511101
7.3833618 6.0973921 17.44331
7.4511509 6.1076803 17.44331
7.3833618 6.0978975 17.511101
7.4511509 6.1077547 17.511101
7.4970551 5.9727488 17.036575
7.51894 5.9398642 17.036575
7.5472412 5.9049578 17.036575
7.4627609 6.0405378 17.036575
7.5124531 5.9727488 17.104362
7.51894 5.961215 17.104362
7.5589981 5.9049578 17.104362
7.4820919 6.0405378 17.104362
7.51894 5.9727488 17.125809
7.5754242 5.9049578 17.172153
7.5352287 5.9727488 17.172153
7.507431 6.0405378 17.172153
7.51894 6.0012484 17.172153
7.5623856 5.9727488 17.239944
7.586729 5.9208841 17.239944
7.586729 5.9049578 17.210842
7.51894 6.0405378 17.199009
7.5385761 6.0405378 17.239944
7.51894 6.1230936 17.036575
7.586729 6.143527 17.036575
7.460968 6.176116 17.104362
7.51894 6.1168375 17.104362
7.586729 6.1352377 17.104362
7.6545181 6.1647196 17.036575
7.6888599 6.176116 17.036575
7.6545181 6.1553354 17.104362
7.7178326 6.176116 17.104362
7.455368 6.3116941 17.036575
7.4607964 6.2439051 17.104362
7.4706211 6.3116941 17.104362
7.7223072 6.1874132 17.036575
7.7223072 6.1777086 17.104362
7.4859219 6.176116 17.172153
7.51894 6.1137762 17.172153
7.586729 6.1277571 17.172153
7.4682808 6.1083269 17.239944
7.51894 6.1083269 17.207989
7.5362797 6.1083269 17.239944
7.5156116 6.176116 17.239944
7.586729 6.1229982 17.239944
7.6545181 6.1464739 17.172153
7.7223072 6.1679296 17.172153
7.7223072 6.176116 17.115425
7.6545181 6.1387091 17.239944
7.7223072 6.1577082 17.239944
7.4842815 6.2439051 17.172153
7.4915714 6.3116941 17.172153
7.5129986 6.2439051 17.239944
7.5159512 6.3116941 17.239944
7.7900963 6.2087584 17.036575
7.8578854 6.2296972 17.036575
7.7900963 6.1996775 17.104362
7.8578854 6.2199354 17.104362
7.9006577 6.2439051 17.036575
7.9256744 6.2521162 17.036575
7.9934654 6.271781 17.036575
7.9256744 6.2390165 17.104362
7.9256744 6.2439051 17.080875
7.9459877 6.2439051 17.104362
7.9934654 6.2537832 17.104362
7.7461243 6.176116 17.172153
7.7864552 6.176116 17.239944
7.7900963 6.1906404 17.172153
7.8578854 6.2084684 17.172153
7.7900963 6.1771154 17.239944
7.8578854 6.1908503 17.239944
7.9256744 6.2208261 17.172153
7.9934654 6.2314997 17.172153
7.9934654 6.2439051 17.13467
7.9256744 6.2004766 17.239944
7.9934654 6.2101641 17.239944
7.586729 5.9727488 17.297443
7.5703125 6.0405378 17.307732
7.586729 5.9810114 17.307732
7.586729 6.0405378 17.346752
7.4636383 6.1083269 17.307732
7.5598698 6.1083269 17.307732
7.51894 6.1175699 17.307732
7.51894 6.176116 17.246933
7.5474987 6.176116 17.307732
7.586729 6.1232443 17.307732
7.4583015 6.1083269 17.375523
7.586729 6.1083269 17.374409
7.51894 6.1172304 17.375523
7.5772705 6.176116 17.375523
7.6545181 6.1353655 17.307732
7.7223072 6.1486902 17.307732
7.5986767 6.0405378 17.375523
7.5871754 6.1083269 17.375523
7.6545181 6.1343012 17.375523
7.7223072 6.1438875 17.375523
7.51894 6.2439051 17.253269
7.5426197 6.2439051 17.307732
7.51894 6.3116941 17.24786
7.5420475 6.3116941 17.307732
7.5713596 6.2439051 17.375523
7.5685005 6.3116941 17.375523
7.4548607 6.1083269 17.44331
7.51894 6.117835 17.44331
7.586729 6.1296568 17.44331
7.586729 6.176116 17.398045
7.4546051 6.1083269 17.511101
7.51894 6.1177969 17.511101
7.586729 6.1278906 17.511101
7.6261654 6.0405378 17.44331
7.616436 6.1083269 17.44331
7.6051579 6.176116 17.44331
7.6545181 6.1332846 17.44331
7.7223072 6.1434088 17.44331
7.6524677 6.0405378 17.511101
7.6437378 6.1083269 17.511101
7.6335621 6.176116 17.511101
7.6545181 6.1315889 17.511101
7.7223072 6.1433249 17.511101
7.586729 6.2439051 17.41243
7.586729 6.3116941 17.423874
7.5990314 6.2439051 17.44331
7.5937901 6.3116941 17.44331
7.625452 6.2439051 17.511101
7.6169815 6.3116941 17.511101
7.7900963 6.159606 17.307732
7.7900963 6.176116 17.243484
7.8578854 6.1694994 17.307732
7.8578854 6.176116 17.285919
7.7900963 6.1513433 17.375523
7.8578854 6.1597357 17.375523
7.8944302 6.176116 17.307732
7.9256744 6.1709719 17.375523
7.9256744 6.176116 17.337387
7.9570618 6.176116 17.375523
7.9256744 6.181674 17.307732
7.9934654 6.1916914 17.307732
7.9934654 6.181653 17.375523
7.7900963 6.1523523 17.44331
7.8578854 6.1612825 17.44331
7.7900963 6.1521845 17.511101
7.8578854 6.1615496 17.511101
7.9256744 6.1707602 17.44331
7.9607697 6.176116 17.44331
7.9256744 6.1717234 17.511101
7.9553623 6.176116 17.511101
7.9934654 6.1810961 17.44331
7.9934654 6.1816797 17.511101
5.8919983 6.2136679 17.578888
5.9597874 6.2136965 17.578888
5.8919983 6.2136106 17.646679
5.9597874 6.2136431 17.646679
6.0275764 6.2137384 17.578888
6.0953655 6.2137823 17.578888
6.0275764 6.2136831 17.646679
6.0953655 6.2137251 17.646679
5.8919983 6.2136717 17.714466
5.9597874 6.2136927 17.714466
5.8919983 6.213645 17.782257
5.9597874 6.2136545 17.782257
6.0275764 6.2137442 17.714466
6.0953655 6.2138052 17.714466
6.0275764 6.2137175 17.782257
6.0953655 6.2137842 17.782257
6.1631546 6.2138567 17.578888
6.2309437 6.213912 17.578888
6.1631546 6.2137957 17.646679
6.2309437 6.2138433 17.646679
6.2987328 6.2139425 17.578888
6.3665237 6.2139387 17.578888
6.2987328 6.2138605 17.646679
6.3665237 6.2138624 17.646679
6.1631546 6.2138796 17.714466
6.2309437 6.2139425 17.714466
6.1631546 6.2138395 17.782257
6.2309437 6.2139063 17.782257
6.2987328 6.2139654 17.714466
6.3665237 6.2139597 17.714466
6.2987328 6.213933 17.782257
6.3665237 6.2138948 17.782257
5.8919983 6.2134962 17.850044
5.9597874 6.2135077 17.850044
5.8919983 6.2136393 17.917835
5.9597874 6.2136698 17.917835
6.0275764 6.213563 17.850044
6.0953655 6.2136087 17.850044
6.0275764 6.2137461 17.917835
6.0953655 6.2138243 17.917835
5.8919983 6.2136774 17.985626
5.9597874 6.2137003 17.985626
5.8919983 6.2145834 18.053413
5.9597874 6.2145758 18.053413
6.0275764 6.2137899 17.985626
6.0953655 6.21387 17.985626
6.0275764 6.2146254 18.053413
6.0953655 6.2146521 18.053413
6.1631546 6.2136374 17.850044
6.2309437 6.213685 17.850044
6.1631546 6.213891 17.917835
6.2309437 6.2139616 17.917835
6.2987328 6.213685 17.850044
6.3665237 6.2136831 17.850044
6.2987328 6.213973 17.917835
6.3665237 6.2139559 17.917835
6.1631546 6.2139215 17.985626
6.2309437 6.213994 17.985626
6.1631546 6.214654 18.053413
6.2309437 6.2146673 18.053413
6.2987328 6.2139997 17.985626
6.3665237 6.2139769 17.985626
6.2987328 6.2146463 18.053413
6.3665237 6.2145987 18.053413
6.4343128 6.2138624 17.578888
6.5021019 6.2126207 17.578888
6.4343128 6.2137518 17.646679
6.5021019 6.2123995 17.646679
6.569891 6.2063112 17.578888
6.6376801 6.1960745 17.578888
6.569891 6.2059584 17.646679
6.6376801 6.195653 17.646679
6.4343128 6.2138052 17.714466
6.5021019 6.2121363 17.714466
6.4343128 6.2137804 17.782257
6.5021019 6.2122202 17.782257
6.569891 6.2054968 17.714466
6.6376801 6.1952677 17.714466
6.569891 6.2053022 17.782257
6.6376801 6.1948309 17.782257
6.7564049 6.176116 17.578888
6.7732582 6.1730928 17.578888
6.7539692 6.176116 17.646679
6.7732582 6.172658 17.646679
6.8410473 6.1615324 17.578888
6.9088364 6.1509104 17.578888
6.8410473 6.1611433 17.646679
6.9088364 6.1505556 17.646679
6.7054691 6.1850767 17.578888
6.7054691 6.1846476 17.646679
6.7511768 6.176116 17.714466
6.7732582 6.1721697 17.714466
6.7491093 6.176116 17.782257
6.7732582 6.1717863 17.782257
6.8410473 6.160697 17.714466
6.9088364 6.1501207 17.714466
6.8410473 6.1603365 17.782257
6.9088364 6.1497469 17.782257
6.7054691 6.1842279 17.714466
6.7054691 6.1838217 17.782257
6.4343128 6.2136106 17.850044
6.5021019 6.2121382 17.850044
6.4343128 6.2136679 17.917835
6.5021019 6.2115908 17.917835
6.569891 6.2051229 17.850044
6.6376801 6.1944265 17.850044
6.569891 6.2045336 17.917835
6.6376801 6.1941385 17.917835
6.4343128 6.2137003 17.985626
6.5021019 6.2114973 17.985626
6.4343128 6.2143469 18.053413
6.5021019 6.2127085 18.053413
6.569891 6.2044764 17.985626
6.6376801 6.1936255 17.985626
6.569891 6.205615 18.053413
6.6376801 6.1946478 18.053413
6.7467041 6.176116 17.850044
6.7732582 6.171382 17.850044
6.7439365 6.176116 17.917835
6.7732582 6.170867 17.917835
6.8410473 6.1598997 17.850044
6.9088364 6.1493845 17.850044
6.8410473 6.1594839 17.917835
6.9088364 6.1489916 17.917835
6.7054691 6.183383 17.850044
6.7054691 6.1829977 17.917835
6.7418022 6.176116 17.985626
6.7732582 6.1707582 17.985626
6.753231 6.176116 18.053413
6.7732582 6.1725492 18.053413
6.8410473 6.159318 17.985626
6.9088364 6.148551 17.985626
6.8410473 6.1599035 18.053413
6.9088364 6.1495104 18.053413
6.7054691 6.1822672 17.985626
6.7054691 6.1843405 18.053413
5.8919983 6.2163839 18.121204
5.9597874 6.2163343 18.121204
5.8919983 6.2184801 18.188992
5.9597874 6.218421 18.188992
6.0275764 6.2163382 18.121204
6.0953655 6.2163248 18.121204
6.0275764 6.2183905 18.188992
6.0953655 6.218339 18.188992
5.8919983 6.2210054 18.256783
5.9597874 6.2209597 18.256783
5.8919983 6.2234259 18.32457
5.9597874 6.2233686 18.32457
6.0275764 6.2209291 18.256783
6.0953655 6.2208872 18.256783
6.0275764 6.2233191 18.32457
6.0953655 6.2232714 18.32457
6.1631546 6.2162848 18.121204
6.2309437 6.2162428 18.121204
6.1631546 6.2182798 18.188992
6.2309437 6.2182093 18.188992
6.2987328 6.2162218 18.121204
6.3665237 6.2161341 18.121204
6.2987328 6.2181845 18.188992
6.3665237 6.2181005 18.188992
6.1631546 6.2208738 18.256783
6.2309437 6.2208204 18.256783
6.1631546 6.2232428 18.32457
6.2309437 6.2232218 18.32457
6.2987328 6.2208052 18.256783
6.3665237 6.2207327 18.256783
6.2987328 6.2231913 18.32457
6.3665237 6.2230959 18.32457
5.8919983 6.2259722 18.392361
5.9597874 6.2259092 18.392361
5.8919983 6.2285624 18.460148
5.9597874 6.228488 18.460148
6.0275764 6.2258501 18.392361
6.0953655 6.2258005 18.392361
6.0275764 6.2284231 18.460148
6.0953655 6.2283621 18.460148
5.8919983 6.2310171 18.527939
5.9597874 6.2309713 18.527939
5.8919983 6.2337217 18.595726
5.9597874 6.2336931 18.595726
6.0275764 6.2309046 18.527939
6.0953655 6.2308359 18.527939
6.0275764 6.2336187 18.595726
6.0953655 6.2335501 18.595726
6.1631546 6.2257662 18.392361
6.2309437 6.2257547 18.392361
6.1631546 6.2283201 18.460148
6.2309437 6.228303 18.460148
6.2987328 6.2257261 18.392361
6.3665237 6.2256517 18.392361
6.2987328 6.2282705 18.460148
6.3665237 6.228219 18.460148
6.1631546 6.2307844 18.527939
6.2309437 6.2307539 18.527939
6.1631546 6.2335043 18.595726
6.2309437 6.2334585 18.595726
6.2987328 6.2306929 18.527939
6.3665237 6.2306166 18.527939
6.2987328 6.2333555 18.595726
6.3665237 6.2333937 18.595726
6.4343128 6.2158251 18.121204
6.5021019 6.2148962 18.121204
6.4343128 6.2179976 18.188992
6.5021019 6.2171297 18.188992
6.569891 6.2091284 18.121204
6.6376801 6.2002993 18.121204
6.569891 6.2140398 18.188992
6.6376801 6.2084074 18.188992
6.4343128 6.2205782 18.256783
6.5021019 6.2195864 18.256783
6.4343128 6.2229834 18.32457
6.5021019 6.2220488 18.32457
6.569891 6.2173243 18.256783
6.6376801 6.2131414 18.256783
6.569891 6.2196798 18.32457
6.6376801 6.2162275 18.32457
6.7732582 6.176116 18.099331
6.7852802 6.176116 18.121204
6.8410473 6.1654863 18.121204
6.9088364 6.1552763 18.121204
6.8410473 6.176116 18.187408
6.8427162 6.176116 18.188992
6.9088364 6.1648245 18.188992
6.7054691 6.1911821 18.121204
6.7732582 6.1785135 18.121204
6.7054691 6.1992064 18.188992
6.7732582 6.1876287 18.188992
6.8410473 6.1764078 18.188992
6.9022942 6.176116 18.256783
6.9088364 6.1748571 18.256783
6.9088364 6.176116 18.265312
6.7054691 6.2061911 18.256783
6.7732582 6.1975241 18.256783
6.7054691 6.2123652 18.32457
6.7732582 6.2059298 18.32457
6.8410473 6.1871462 18.256783
6.8410473 6.1961622 18.32457
6.9088364 6.1851606 18.32457
6.4343128 6.2256861 18.392361
6.5021019 6.2248659 18.392361
6.4343128 6.2281542 18.460148
6.5021019 6.2287283 18.460148
6.569891 6.2228518 18.392361
6.6376801 6.2202425 18.392361
6.569891 6.2282534 18.460148
6.6376801 6.2250299 18.460148
6.4343128 6.2307329 18.527939
6.5021019 6.2322416 18.527939
6.4343128 6.2335234 18.595726
6.5021019 6.2349615 18.595726
6.569891 6.2328634 18.527939
6.6376801 6.2305956 18.527939
6.569891 6.2373724 18.595726
6.6376801 6.2386827 18.595726
6.7054691 6.2168531 18.392361
6.7732582 6.2113409 18.392361
6.7054691 6.2205553 18.460148
6.7732582 6.2165003 18.460148
6.8410473 6.20436 18.392361
6.9088364 6.1962481 18.392361
6.8410473 6.2128553 18.460148
6.9088364 6.2077971 18.460148
6.7054691 6.2278738 18.527939
6.7732582 6.2252665 18.527939
6.7054691 6.2384977 18.595726
6.7732582 6.2365599 18.595726
6.8410473 6.222373 18.527939
6.9088364 6.218915 18.527939
6.8410473 6.2332697 18.595726
6.9088364 6.2293901 18.595726
6.9766254 6.1407309 17.578888
7.0444145 6.1303988 17.578888
6.9766254 6.140378 17.646679
7.0444145 6.1299162 17.646679
7.1777706 6.1083269 17.578888
7.1799946 6.1079378 17.578888
7.1122036 6.1194448 17.578888
7.1753654 6.1083269 17.646679
7.1799946 6.1075315 17.646679
7.1122036 6.1190062 17.646679
6.9766254 6.1400099 17.714466
7.0444145 6.1295977 17.714466
6.9766254 6.1395235 17.782257
7.0444145 6.1291437 17.782257
7.1716805 6.1083269 17.714466
7.1799946 6.1068697 17.714466
7.1122036 6.1185789 17.714466
7.1699772 6.1083269 17.782257
7.1799946 6.1065588 17.782257
7.1122036 6.1183271 17.782257
7.2477837 6.0963106 17.578888
7.3155727 6.0919065 17.578888
7.2477837 6.0961752 17.646679
7.3155727 6.0921278 17.646679
7.3833618 6.0982828 17.578888
7.4511509 6.1081076 17.578888
7.3833618 6.0987215 17.646679
7.4496307 6.1083269 17.646679
7.4511509 6.1083269 17.606911
7.4511509 6.1085615 17.646679
7.2477837 6.095542 17.714466
7.3155727 6.0919523 17.714466
7.2477837 6.0956259 17.782257
7.3155727 6.0925207 17.782257
7.3833618 6.0986509 17.714466
7.4494724 6.1083269 17.714466
7.4511509 6.108592 17.714466
7.3833618 6.0988989 17.782257
7.446991 6.1083269 17.782257
7.4511509 6.1089926 17.782257
6.9766254 6.1392469 17.850044
7.0444145 6.1286879 17.850044
6.9766254 6.1387835 17.917835
7.0444145 6.1283751 17.917835
7.1671562 6.1083269 17.850044
7.1799946 6.1061468 17.850044
7.1122036 6.1176653 17.850044
7.1648712 6.1083269 17.917835
7.1799946 6.1056929 17.917835
7.1122036 6.1173391 17.917835
6.9766254 6.1385069 17.985626
7.0444145 6.1279211 17.985626
6.9766254 6.1398458 18.053413
7.0444145 6.128396 18.053413
7.1614113 6.1083269 17.985626
7.1799946 6.1052027 17.985626
7.1122036 6.1166887 17.985626
7.1662827 6.1083269 18.053413
7.1799946 6.1061296 18.053413
7.1122036 6.1170759 18.053413
7.2477837 6.0952806 17.850044
7.3155727 6.0923929 17.850044
7.2477837 6.0942926 17.917835
7.3155727 6.0916758 17.917835
7.3833618 6.0994482 17.850044
7.4455299 6.1083269 17.850044
7.4511509 6.1091738 17.850044
7.3833618 6.0995188 17.917835
7.4443321 6.1083269 17.917835
7.4511509 6.1093435 17.917835
7.2477837 6.0947828 17.985626
7.3155727 6.0925512 17.985626
7.2477837 6.0952768 18.053413
7.3155727 6.0936213 18.053413
7.3833618 6.099885 17.985626
7.4418316 6.1083269 17.985626
7.4511509 6.1097116 17.985626
7.3833618 6.1023283 18.053413
7.4270439 6.1083269 18.053413
7.4511509 6.1114531 18.053413
7.4524975 6.1083269 17.578888
7.51894 6.1181192 17.578888
7.586729 6.1280317 17.578888
7.51894 6.118186 17.646679
7.586729 6.127883 17.646679
7.6545181 6.0405378 17.516701
7.6545181 6.1083269 17.539829
7.6725044 6.0405378 17.578888
7.6651115 6.1083269 17.578888
7.6545181 6.1446123 17.578888
7.6545181 6.176116 17.574139
7.6556683 6.176116 17.578888
7.7223072 6.1433859 17.578888
7.6797905 6.0405378 17.646679
7.6716423 6.1083269 17.646679
7.6545181 6.1384592 17.646679
7.6639843 6.176116 17.646679
7.7223072 6.1442022 17.646679
7.6463547 6.2439051 17.578888
7.6545181 6.189765 17.578888
7.6348877 6.3116941 17.578888
7.6545181 6.2439051 17.636841
7.655201 6.2439051 17.646679
7.6453171 6.3116941 17.646679
7.6545181 6.2487783 17.646679
7.51894 6.1183901 17.714466
7.586729 6.1281614 17.714466
7.51894 6.1189165 17.782257
7.586729 6.1283197 17.782257
7.6788845 6.0405378 17.714466
7.6704216 6.1083269 17.714466
7.6545181 6.1395407 17.714466
7.6627865 6.176116 17.714466
7.7223072 6.1443129 17.714466
7.6704845 6.0405378 17.782257
7.6592121 6.1083269 17.782257
7.6528854 6.176116 17.782257
7.6545181 6.176116 17.772507
7.7223072 6.1450663 17.782257
